1091
-0.969116 -0.960919 -0.072746
-0.956284 -0.959065 0.146321
-0.988095 -0.855874 -0.039178
-0.975751 -0.870365 0.048936
-0.960822 -0.766930 -0.169301
-0.977361 -0.761368 -0.058743
-0.961505 -0.783665 0.051278
-0.996829 -0.780055 0.145736
-0.976727 -0.684085 -0.140710
-0.990388 -0.690037 -0.044009
-0.958089 -0.685012 0.061524
-0.970775 -0.672863 0.155884
-0.967945 -0.561280 -0.230923
-0.957699 -0.591432 -0.153981
-0.977069 -0.571575 -0.028249
-0.967750 -0.572843 0.025761
-0.992877 -0.576161 0.146126
-0.975507 -0.603532 0.226922
-0.955747 -0.509416 -0.125781
-0.983509 -0.492681 -0.062500
-0.961700 -0.463847 0.026005
-0.975166 -0.500390 0.170667
-0.982387 -0.379098 -0.226190
-0.963603 -0.400810 -0.123536
-0.971360 -0.379635 -0.035909
-0.988632 -0.397248 0.055621
-0.987607 -0.414520 0.137978
-0.967116 -0.311915 -0.136173
-0.969653 -0.302108 -0.028396
-0.979020 -0.302254 0.057719
-0.988242 -0.286544 0.149883
-0.992145 -0.310597 0.224580
-0.960431 -0.182084 -0.169399
-0.991462 -0.171302 -0.061378
-0.967701 -0.198917 0.027469
-0.974776 -0.192428 0.149249
-0.985802 -0.076844 -0.227459
-0.977215 -0.096799 -0.146224
-0.961114 -0.105045 -0.034202
-0.955699 -0.112998 0.059133
-0.972922 -0.092018 0.149639
-0.974434 0.009026 -0.148029
-0.952869 0.000049 -0.033421
-0.997121 0.000488 0.046546
-0.966432 -0.013027 0.132514
-0.954869 -0.015613 0.238534
-0.959114 0.085139 -0.157348
-0.963066 0.084309 -0.032055
-0.970726 0.104118 0.068306
-0.963993 0.103532 0.166764
-0.955796 0.182231 -0.164374
-0.967213 0.177108 -0.030396
-0.967213 0.189403 0.039569
-0.985217 0.215457 0.139979
-0.955308 0.295033 -0.131635
-0.995267 0.302059 -0.055279
-0.977117 0.284787 0.026883
-0.957016 0.274151 0.123195
-0.954333 0.391735 -0.240047
-0.986095 0.394174 -0.132953
-0.956187 0.372317 -0.033568
-0.972678 0.367730 0.033665
-0.968872 0.374658 0.168423
-0.959553 0.464188 -0.127927
-0.997365 0.466286 -0.068989
-0.961846 0.484875 0.051864
-0.980777 0.468189 0.122024
-0.964188 0.588359 -0.257367
-0.995316 0.593335 -0.143004
-0.969750 0.575625 -0.033616
-0.982582 0.607143 0.065135
-0.954479 0.577918 0.155152
-0.973214 0.695111 -0.154713
-0.991218 0.675644 -0.034543
-0.968433 0.661105 0.043911
-0.991706 0.659885 0.148614
-0.964139 0.801181 -0.260685
-0.978630 0.762783 -0.147346
-0.964335 0.786836 -0.058255
-0.964432 0.798595 0.072648
-0.974532 0.775615 0.122121
-0.994438 0.769565 0.232680
-0.974483 0.890857 -0.238876
-0.996194 0.853923 -0.168716
-0.956479 0.881099 -0.070111
-0.959846 0.877586 0.033421
-0.969116 0.897931 0.167252
-0.956870 0.988486 0.055181
-0.958772 0.956040 0.129050
-0.895589 -0.977508 -0.158958
-0.893247 -0.972775 -0.041228
-0.866950 -0.986095 0.038349
-0.876464 -0.971360 0.147590
-0.881099 -0.956723 0.236290
-0.894174 -0.880708 -0.239022
-0.883929 -0.881245 0.248780
-0.883831 -0.796497 -0.225215
-0.893735 -0.782543 0.250537
-0.899249 -0.669984 -0.258197
-0.863388 -0.694135 0.227752
-0.889198 -0.590213 -0.244438
-0.868511 -0.562305 0.243901
-0.860948 -0.484582 -0.221946
-0.888320 -0.477069 0.261368
-0.898126 -0.414471 -0.228825
-0.898810 -0.376561 0.227215
-0.871975 -0.286885 -0.242486
-0.883343 -0.311573 0.252537
-0.856557 -0.174571 -0.222922
-0.878367 -0.191842 0.232192
-0.854264 -0.112998 -0.238437
-0.863290 -0.108558 0.221604
-0.898810 0.020394 -0.246390
-0.882270 0.021028 0.238290
-0.897980 0.111632 -0.239413
-0.856460 0.087627 0.227215
-0.876171 0.197453 -0.252683
-0.888515 0.175010 0.246536
-0.886222 0.301425 -0.221848
-0.866754 0.309036 0.235070
-0.884319 0.379781 -0.230484
-0.877098 0.414422 0.227361
-0.870804 0.502781 -0.229508
-0.864364 0.469701 0.222922
-0.875976 0.581040 -0.252830
-0.870316 0.580699 0.227020
-0.899737 0.669399 -0.231606
-0.891784 0.661105 0.243072
-0.859387 0.804108 -0.242340
-0.858021 0.775761 0.253806
-0.877293 0.876464 -0.259368
-0.854362 0.887246 0.233363
-0.887246 0.961114 -0.141345
-0.868609 0.974629 -0.040252
-0.866023 0.973165 0.052742
-0.896907 0.997170 0.148614
-0.800693 -0.982387 -0.144077
-0.789617 -0.980435 -0.044496
-0.798058 -0.997804 0.055767
-0.774005 -0.967116 0.141393
-0.765564 -0.901005 -0.229215
-0.758587 -0.858509 0.245658
-0.796058 -0.777664 -0.253318
-0.784446 -0.782250 0.229606
-0.758587 -0.661544 -0.220775
-0.759563 -0.658958 0.236924
-0.779469 -0.575381 -0.233607
-0.770150 -0.603337 0.253562
-0.788154 -0.474190 -0.235265
-0.794789 -0.475459 0.252244
-0.783275 -0.397687 -0.241120
-0.774200 -0.410324 0.253952
-0.801473 -0.295521 -0.243560
-0.765662 -0.300644 0.238339
-0.766296 -0.218043 -0.227020
-0.780786 -0.188037 0.234338
-0.788886 -0.078796 -0.251025
-0.793326 -0.105240 0.227849
-0.802693 -0.022590 -0.257123
-0.756684 -0.012637 0.225459
-0.776151 0.075625 -0.238437
-0.798790 0.077332 0.236095
-0.804986 0.212090 -0.225849
-0.762832 0.180572 0.240925
-0.797570 0.270736 -0.224580
-0.768735 0.309133 0.219799
-0.787178 0.387002 -0.260148
-0.804059 0.382855 0.223946
-0.763320 0.511319 -0.248146
-0.763222 0.477605 0.259514
-0.762198 0.594262 -0.221799
-0.799034 0.565964 0.265662
-0.763759 0.671936 -0.240193
-0.787373 0.662520 0.262149
-0.765320 0.767955 -0.247365
-0.790642 0.776883 0.264491
-0.779567 0.865242 -0.259563
-0.773370 0.868999 0.240974
-0.797668 0.979557 -0.168082
-0.760978 0.968482 -0.029176
-0.765418 0.975898 0.053132
-0.758831 0.955455 0.145394
-0.661007 -0.973312 -0.245755
-0.661007 -0.966725 -0.134465
-0.687695 -0.989461 -0.072795
-0.687354 -0.975800 0.069184
-0.701698 -0.984680 0.138271
-0.689500 -0.966432 0.227605
-0.688866 -0.857192 -0.233119
-0.659397 -0.877732 0.243804
-0.701552 -0.772687 -0.228386
-0.693355 -0.804840 0.221116
-0.679840 -0.660861 -0.260685
-0.696965 -0.704772 0.243999
-0.666618 -0.596848 -0.267028
-0.686573 -0.589871 0.227996
-0.660568 -0.485900 -0.219653
-0.704967 -0.507221 0.250439
-0.666667 -0.377342 -0.219653
-0.675156 -0.373146 0.259416
-0.663690 -0.292691 -0.221555
-0.670765 -0.303376 0.230240
-0.691647 -0.211407 -0.226776
-0.660909 -0.177693 0.263954
-0.686573 -0.084358 -0.237559
-0.685988 -0.091628 0.220287
-0.700868 -0.024053 -0.231655
-0.680962 -0.000390 0.265857
-0.687549 0.098946 -0.254635
-0.688427 0.118609 0.243218
-0.695843 0.180523 -0.231362
-0.660470 0.194477 0.258685
-0.663934 0.306596 -0.243365
-0.670619 0.306352 0.251366
-0.686378 0.404859 -0.227605
-0.688085 0.391637 0.236388
-0.687890 0.501708 -0.251805
-0.673156 0.511954 0.224922
-0.686427 0.585919 -0.223263
-0.661641 0.588407 0.250098
-0.674132 0.666179 -0.235607
-0.707406 0.697404 0.231167
-0.704381 0.799571 -0.244926
-0.663398 0.775322 0.255562
-0.661593 0.874854 -0.256001
-0.663154 0.870902 0.220189
-0.701942 0.959016 -0.159982
-0.675595 0.985461 -0.044204
-0.671302 0.993706 0.065574
-0.685304 0.966189 0.147541
-0.576600 -0.972043 -0.246292
-0.582504 -0.987851 -0.166764
-0.563037 -0.951942 -0.058694
-0.561768 -0.994828 0.057914
-0.576015 -0.974239 0.143199
-0.602996 -0.961700 0.230045
-0.600654 -0.875537 -0.246926
-0.595824 -0.881489 0.266881
-0.594067 -0.777176 -0.237510
-0.575332 -0.760002 0.233704
-0.607484 -0.671253 -0.221214
-0.601727 -0.667008 0.237022
-0.601288 -0.590505 -0.265320
-0.603728 -0.580747 0.260539
-0.572258 -0.467164 -0.224288
-0.563378 -0.467896 0.221946
-0.592896 -0.366901 -0.235021
-0.605240 -0.403640 0.230484
-0.590701 -0.282299 -0.250146
-0.572697 -0.284007 0.236290
-0.602410 -0.190183 -0.237266
-0.602215 -0.199258 0.264247
-0.569331 -0.118560 -0.264637
-0.591042 -0.078893 0.246877
-0.566403 0.015515 -0.263564
-0.583187 -0.004001 0.225459
-0.600654 0.084748 -0.251366
-0.564842 0.120560 0.264247
-0.583187 0.180621 -0.258002
-0.604411 0.197892 0.243267
-0.609143 0.307670 -0.244389
-0.601093 0.284495 0.220384
-0.591042 0.394809 -0.267467
-0.597922 0.368218 0.232387
-0.572209 0.480923 -0.239657
-0.561378 0.478874 0.254294
-0.605484 0.561866 -0.242974
-0.597336 0.590359 0.250585
-0.576942 0.686085 -0.242779
-0.565379 0.698087 0.235997
-0.599483 0.759221 -0.262539
-0.595336 0.784690 0.229655
-0.591237 0.861290 -0.241023
-0.570697 0.871585 0.237900
-0.578503 0.953210 -0.228630
-0.589871 0.981557 -0.145492
-0.566013 0.989169 -0.046936
-0.606313 0.956772 0.062744
-0.567330 0.967847 0.126854
-0.507221 -0.968433 -0.162276
-0.488730 -0.977117 -0.059426
-0.505757 -0.966237 0.036007
-0.499805 -0.984192 0.136173
-0.510197 -0.964774 0.236290
-0.502732 -0.857436 -0.241511
-0.481753 -0.882319 0.266247
-0.511563 -0.788642 -0.243365
-0.511758 -0.786007 0.265808
-0.491364 -0.694477 -0.259563
-0.509465 -0.666423 0.229801
-0.465554 -0.603972 -0.229850
-0.480874 -0.583821 0.223653
-0.471019 -0.475654 -0.247365
-0.486973 -0.487949 0.233655
-0.483558 -0.379342 -0.237949
-0.492681 -0.376512 0.260246
-0.506977 -0.299717 -0.248488
-0.493316 -0.277713 0.247170
-0.466042 -0.178962 -0.235607
-0.485607 -0.198868 0.248195
-0.473751 -0.080504 -0.249219
-0.490193 -0.100703 0.254684
-0.506587 -0.014979 -0.245023
-0.473653 -0.003757 0.232582
-0.494487 0.083724 -0.228581
-0.507416 0.107143 0.240925
-0.479411 0.177840 -0.255269
-0.496341 0.209163 0.239266
-0.483753 0.296399 -0.241901
-0.476678 0.304986 0.242730
-0.510783 0.371341 -0.238534
-0.512393 0.366852 0.266296
-0.479264 0.477361 -0.264539
-0.492194 0.467847 0.248683
-0.510539 0.604459 -0.229655
-0.494536 0.607533 0.231509
-0.501805 0.681060 -0.260636
-0.469750 0.695941 0.246926
-0.480338 0.768199 -0.246292
-0.506245 0.789130 0.262198
-0.482923 0.898468 -0.247463
-0.469750 0.866267 0.262490
-0.510929 0.991413 -0.134124
-0.473556 0.986680 -0.061524
-0.509904 0.952137 0.041667
-0.472824 0.963359 0.123634
-0.467555 0.974141 0.247414
-0.387441 -0.986339 -0.162959
-0.379635 -0.971604 -0.048741
-0.383002 -0.995560 0.050107
-0.376171 -0.978142 0.149493
-0.385343 -0.864949 -0.252537
-0.394126 -0.898517 0.257416
-0.370755 -0.766540 -0.251903
-0.372365 -0.794643 0.232777
-0.404323 -0.678376 -0.221068
-0.379147 -0.681060 0.244048
-0.393394 -0.564061 -0.256440
-0.394809 -0.576991 0.237949
-0.398322 -0.471507 -0.243901
-0.410129 -0.478972 0.249707
-0.378952 -0.366657 -0.236583
-0.377683 -0.414374 0.233704
-0.408177 -0.281714 -0.244292
-0.387881 -0.276786 0.253269
-0.376854 -0.198234 -0.242535
-0.413690 -0.185060 0.227459
-0.405933 -0.102215 -0.262539
-0.411495 -0.117438 0.250293
-0.392467 -0.007172 -0.241852
-0.394711 0.017125 0.265320
-0.396126 0.086066 -0.224044
-0.412080 0.096751 0.219799
-0.403591 0.206821 -0.227703
-0.404811 0.186671 0.264539
-0.368755 0.293472 -0.243804
-0.404616 0.309524 0.237363
-0.388125 0.389149 -0.228728
-0.371780 0.389783 0.246243
-0.378659 0.504196 -0.248390
-0.404811 0.489803 0.265564
-0.375098 0.581577 -0.235802
-0.387100 0.588554 0.257904
-0.369438 0.696526 -0.229264
-0.373975 0.677303 0.236095
-0.411983 0.762393 -0.219653
-0.384758 0.772346 0.222092
-0.375342 0.887246 -0.235997
-0.394565 0.870950 0.257465
-0.369340 0.999854 -0.155982
-0.390613 0.975898 -0.026591
-0.388076 0.958236 0.071038
-0.380757 0.984046 0.135148
-0.280250 -0.996877 -0.161056
-0.275371 -0.956333 -0.035714
-0.290447 -0.976727 0.038837
-0.292691 -0.971897 0.140515
-0.289032 -0.954820 0.224873
-0.303620 -0.887246 -0.227069
-0.298644 -0.857875 0.234046
-0.304254 -0.796741 -0.255757
-0.286641 -0.800302 0.238242
-0.294106 -0.690330 -0.246780
-0.311280 -0.671399 0.245853
-0.297034 -0.575576 -0.249951
-0.299180 -0.590798 0.233655
-0.297131 -0.494389 -0.251269
-0.280884 -0.469945 0.260636
-0.282787 -0.399980 -0.262393
-0.298692 -0.376122 0.265027
-0.282250 -0.280445 -0.221799
-0.272004 -0.304254 0.232094
-0.300107 -0.188085 -0.252440
-0.284495 -0.172375 0.231948
-0.286934 -0.121780 -0.235997
-0.298936 -0.120316 0.263856
-0.272151 -0.016735 -0.223019
-0.309719 -0.003757 0.237949
-0.309231 0.097385 -0.265808
-0.286153 0.092945 0.238095
-0.275224 0.218530 -0.251561
-0.296058 0.173448 0.250781
-0.289764 0.286836 -0.220141
-0.274688 0.292838 0.231411
-0.289130 0.413642 -0.252488
-0.289910 0.382075 0.248731
-0.289617 0.482484 -0.243804
-0.276932 0.492730 0.233265
-0.284104 0.604020 -0.242340
-0.311231 0.594116 0.234241
-0.278298 0.701503 -0.220482
-0.304694 0.670082 0.232923
-0.307036 0.794594 -0.234338
-0.301132 0.798985 0.263125
-0.297424 0.870950 -0.238534
-0.288203 0.871585 0.238095
-0.284299 0.957943 -0.137100
-0.293472 0.967750 -0.030347
-0.317184 0.984290 0.052303
-0.275176 0.972580 0.145882
-0.308353 0.982338 0.237168
-0.216530 -0.959407 -0.242633
-0.202137 -0.978093 -0.147541
-0.202527 -0.990388 -0.057426
-0.201649 -0.964871 0.032787
-0.190623 -0.964725 0.151591
-0.181840 -0.875049 -0.247317
-0.208480 -0.857680 0.256196
-0.181840 -0.779664 -0.247804
-0.195941 -0.780689 0.268199
-0.191745 -0.670570 -0.251512
-0.209504 -0.674863 0.262588
-0.192574 -0.584651 -0.223653
-0.192867 -0.583919 0.255855
-0.210870 -0.495902 -0.235363
-0.212383 -0.489754 0.224678
-0.174278 -0.378903 -0.219897
-0.208382 -0.378415 0.245414
-0.189500 -0.279128 -0.256196
-0.215164 -0.270638 0.244292
-0.171887 -0.207065 -0.242389
-0.203308 -0.200332 0.222434
-0.181304 -0.094018 -0.221409
-0.217311 -0.089627 0.228240
-0.201893 -0.007270 -0.238144
-0.206528 0.016540 0.220141
-0.201210 0.108948 -0.226239
-0.214237 0.111485 0.233021
-0.179889 0.187110 -0.252147
-0.187793 0.205747 0.220141
-0.179938 0.315086 -0.267174
-0.192086 0.295521 0.266296
-0.213651 0.386807 -0.229655
-0.215652 0.383246 0.259856
-0.177986 0.475166 -0.235119
-0.188085 0.505074 0.239169
-0.199356 0.607826 -0.246341
-0.199454 0.570160 0.226922
-0.171155 0.699600 -0.265759
-0.212383 0.663447 0.244194
-0.185890 0.798400 -0.253659
-0.196185 0.781860 0.256001
-0.202527 0.882075 -0.262051
-0.185695 0.879879 0.234582
-0.176766 0.969018 -0.165593
-0.213407 0.969262 -0.043765
-0.183646 0.952771 0.063671
-0.172131 0.980728 0.161836
-0.077820 -0.970189 -0.165203
-0.095677 -0.997414 -0.065525
-0.102410 -0.967945 0.034836
-0.106704 -0.958968 0.135734
-0.110997 -0.877147 -0.250634
-0.089627 -0.900566 0.262490
-0.105582 -0.796887 -0.255952
-0.112315 -0.758587 0.226532
-0.095872 -0.661593 -0.222775
-0.095482 -0.681352 0.265027
-0.119633 -0.584748 -0.236095
-0.096946 -0.574649 0.245609
-0.077722 -0.504196 -0.255464
-0.096458 -0.511270 0.238388
-0.118267 -0.397004 -0.224580
-0.092116 -0.371048 0.245511
-0.089920 -0.278689 -0.250342
-0.121536 -0.297619 0.257416
-0.079674 -0.205308 -0.260734
-0.087432 -0.203845 0.256879
-0.084748 -0.087041 -0.224922
-0.090213 -0.077235 0.260246
-0.082455 0.010100 -0.264198
-0.116364 -0.020053 0.244682
-0.115535 0.077674 -0.226630
-0.109094 0.080016 0.239510
-0.111192 0.197746 -0.256977
-0.087724 0.200478 0.267613
-0.092116 0.284934 -0.237071
-0.112900 0.287812 0.259221
-0.092213 0.377879 -0.243755
-0.095628 0.394565 0.240925
-0.086944 0.489071 -0.232533
-0.095336 0.506831 0.254342
-0.087676 0.588749 -0.219653
-0.081870 0.574454 0.249073
-0.113583 0.707114 -0.258782
-0.097531 0.672619 0.220580
-0.118852 0.785714 -0.222190
-0.092750 0.802449 0.231460
-0.103044 0.893052 -0.236875
-0.094653 0.877830 0.231704
-0.092213 0.973946 -0.130269
-0.083577 0.957309 -0.064744
-0.080747 0.978972 0.069721
-0.096068 0.979655 0.141198
-0.012881 -0.978972 -0.151298
0.008197 -0.972287 -0.051815
0.019955 -0.976288 0.050888
-0.012685 -0.981216 0.162959
0.014295 -0.887539 -0.238681
0.007123 -0.875439 0.259953
0.017174 -0.798156 -0.222385
0.007855 -0.800742 0.257367
-0.022736 -0.675546 -0.231460
0.021370 -0.689891 0.262051
0.016247 -0.580016 -0.240193
0.007270 -0.570941 0.263320
0.002049 -0.471995 -0.236924
0.021858 -0.468774 0.225898
0.013368 -0.403103 -0.266345
0.004294 -0.366950 0.220336
-0.017857 -0.276542 -0.241754
0.020541 -0.272248 0.232972
0.005660 -0.199356 -0.257465
0.017467 -0.194770 0.243413
-0.019418 -0.113827 -0.249707
-0.024200 -0.089920 0.258538
0.015174 0.023078 -0.267857
0.016052 -0.009368 0.224141
0.014832 0.079723 -0.247756
0.002976 0.111534 0.243462
-0.018491 0.213651 -0.247024
0.007319 0.184182 0.220726
0.007953 0.275420 -0.243511
-0.003659 0.294594 0.229362
-0.021468 0.397541 -0.219653
-0.008148 0.374854 0.242974
0.002781 0.465993 -0.223458
-0.014198 0.480533 0.248927
-0.019223 0.586749 -0.239461
0.009221 0.596214 0.252196
-0.013954 0.681987 -0.247365
-0.023810 0.691745 0.255611
-0.021809 0.797229 -0.221311
0.016296 0.758392 0.228923
-0.024249 0.880806 -0.263222
0.021468 0.870950 0.230338
0.008880 0.966530 -0.238339
0.017711 0.955894 -0.126171
-0.016979 0.956479 -0.053474
0.019614 0.970189 0.056596
0.010831 0.990486 0.143394
0.007026 0.971409 0.252293
0.073380 -0.965066 -0.127440
0.112656 -0.991852 -0.046302
0.103874 -0.954235 0.025273
0.092945 -0.987998 0.155396
0.112754 -0.999610 0.226678
0.081187 -0.876122 -0.224239
0.093677 -0.877927 0.258099
0.087237 -0.772248 -0.227654
0.082992 -0.784592 0.252488
0.096116 -0.675156 -0.246731
0.092213 -0.703552 0.255025
0.104606 -0.601630 -0.235900
0.114949 -0.577722 0.236485
0.085675 -0.480679 -0.247219
0.103923 -0.489071 0.264539
0.101337 -0.407104 -0.242535
0.104313 -0.405103 0.235753
0.114120 -0.282738 -0.248000
0.101532 -0.273273 0.229557
0.118950 -0.200625 -0.219604
0.103728 -0.181645 0.246194
0.117877 -0.103142 -0.238876
0.115925 -0.088115 0.220336
0.097287 -0.002927 -0.262490
0.078357 -0.016296 0.234973
0.100117 0.085431 -0.237217
0.110607 0.109534 0.229801
0.116901 0.211212 -0.254050
0.109582 0.205211 0.236534
0.113046 0.316696 -0.263905
0.088700 0.282494 0.266589
0.077625 0.402322 -0.228532
0.117730 0.373683 0.252000
0.104069 0.501220 -0.268247
0.112802 0.501805 0.238778
0.075088 0.575137 -0.250098
0.077332 0.586895 0.245755
0.100849 0.666715 -0.235607
0.076064 0.672863 0.231118
0.120609 0.801473 -0.261807
0.096263 0.797375 0.258148
0.114266 0.901688 -0.260100
0.120219 0.896809 0.237754
0.074258 0.976044 -0.167301
0.111192 0.993706 -0.039617
0.103630 0.987656 0.062793
0.083968 0.958431 0.161544
0.175351 -0.952722 -0.235461
0.201991 -0.991218 -0.132709
0.178962 -0.996975 -0.052693
0.207211 -0.967896 0.057328
0.176473 -0.984387 0.137490
0.194428 -0.952966 0.249561
0.186036 -0.863388 -0.233997
0.208041 -0.889149 0.259563
0.184036 -0.796985 -0.242633
0.205064 -0.773126 0.265320
0.198283 -0.691696 -0.231069
0.197551 -0.662129 0.243121
0.183792 -0.566891 -0.259221
0.171936 -0.586114 0.224044
0.175059 -0.499902 -0.227264
0.193404 -0.470482 0.258685
0.173448 -0.371536 -0.230435
0.175888 -0.397785 0.222434
0.177693 -0.272541 -0.249268
0.185792 -0.295911 0.237510
0.211895 -0.175742 -0.260929
0.187207 -0.202527 0.229606
0.185402 -0.077137 -0.253708
0.213700 -0.079333 0.261319
0.194819 -0.008392 -0.261758
0.170765 -0.012295 0.266979
0.180377 0.081431 -0.246585
0.171692 0.090359 0.257123
0.199063 0.181987 -0.258343
0.215798 0.193306 0.234729
0.175205 0.308304 -0.256343
0.190867 0.309182 0.256196
0.210724 0.403445 -0.231362
0.203991 0.390954 0.237510
0.212578 0.478044 -0.247024
0.179791 0.505221 0.229362
0.202479 0.567477 -0.237363
0.194721 0.567233 0.253269
0.179303 0.695014 -0.245511
0.191208 0.692037 0.220384
0.195111 0.778786 -0.227605
0.176571 0.772639 0.234729
0.206870 0.879684 -0.261661
0.179645 0.874512 0.267857
0.204284 0.973214 -0.234436
0.216432 0.965554 -0.152420
0.183206 0.991657 -0.033275
0.206626 0.955308 0.044496
0.208187 0.977459 0.150224
0.186427 0.960724 0.240584
0.300449 -0.951747 -0.223263
0.288154 -0.957309 -0.153298
0.272248 -0.955699 -0.067525
0.313720 -0.996243 0.026786
0.295814 -0.962627 0.139930
0.306596 -0.883148 -0.234680
0.284787 -0.854801 0.253269
0.309817 -0.776542 -0.253464
0.315281 -0.798985 0.243804
0.280250 -0.701259 -0.226044
0.296399 -0.662617 0.253367
0.274590 -0.576503 -0.235168
0.292203 -0.566452 0.232045
0.282250 -0.474580 -0.255172
0.286153 -0.482436 0.265759
0.299229 -0.406421 -0.221165
0.270199 -0.383050 0.222287
0.268345 -0.297278 -0.239608
0.274883 -0.316989 0.256245
0.299424 -0.214920 -0.250488
0.303962 -0.203210 0.265222
0.312451 -0.107826 -0.241267
0.278249 -0.086212 0.253708
0.300742 -0.021077 -0.222287
0.306938 -0.004001 0.228191
0.307084 0.079528 -0.261954
0.271468 0.079479 0.220336
0.289374 0.201991 -0.261222
0.290642 0.213993 0.254977
0.292545 0.315525 -0.234387
0.274297 0.305425 0.241754
0.284738 0.367633 -0.242681
0.296107 0.401151 0.227654
0.283372 0.489608 -0.240144
0.283763 0.500098 0.234778
0.286544 0.600117 -0.226044
0.312110 0.597238 0.246292
0.296448 0.675986 -0.262051
0.277908 0.659836 0.265662
0.273175 0.796107 -0.256635
0.303864 0.762100 0.258733
0.273614 0.855826 -0.263905
0.281421 0.891296 0.228191
0.313915 0.953454 -0.250244
0.283324 0.982387 -0.129977
0.295423 0.959065 -0.029762
0.275810 0.984582 0.035031
0.305133 0.986973 0.155738
0.315476 0.976288 0.240486
0.395150 -0.954089 -0.158958
0.413690 -0.957992 -0.033811
0.399932 -0.961163 0.065671
0.398370 -0.981899 0.144662
0.412812 -0.993999 0.223605
0.413495 -0.864364 -0.258587
0.375244 -0.864608 0.221458
0.406518 -0.761758 -0.226825
0.412910 -0.763564 0.261758
0.379342 -0.686866 -0.226288
0.414374 -0.686671 0.221702
0.390027 -0.576991 -0.242194
0.393394 -0.561329 0.261661
0.390515 -0.488534 -0.266149
0.383050 -0.492486 0.265808
0.404030 -0.407397 -0.243072
0.390271 -0.411495 0.256831
0.406665 -0.283470 -0.243901
0.413007 -0.303718 0.236485
0.399834 -0.189452 -0.261563
0.392125 -0.206674 0.247707
0.396077 -0.090798 -0.231265
0.384075 -0.087285 0.262783
0.408811 -0.005708 -0.259075
0.411007 0.018638 0.263954
0.398663 0.099141 -0.261173
0.366559 0.100898 0.231021
0.408324 0.207260 -0.246438
0.406274 0.210285 0.258538
0.393931 0.281860 -0.259124
0.389881 0.282689 0.261417
0.375537 0.399346 -0.233851
0.380952 0.410373 0.260539
0.392613 0.488046 -0.230630
0.394370 0.498780 0.250585
0.402859 0.568062 -0.241413
0.377537 0.593823 0.236144
0.407933 0.674083 -0.263612
0.398419 0.682426 0.250342
0.378123 0.766149 -0.251122
0.393833 0.757758 0.256440
0.403298 0.891052 -0.260441
0.386758 0.896858 0.265515
0.400127 0.954625 -0.262246
0.412861 0.972922 -0.137881
0.371243 0.970970 -0.031909
0.393101 0.971653 0.041911
0.384563 0.972824 0.145785
0.477752 -0.971507 -0.142955
0.508587 -0.966189 -0.069331
0.469262 -0.967750 0.055523
0.491169 -0.994877 0.129586
0.474629 -0.899688 -0.243755
0.470921 -0.901639 0.224288
0.465505 -0.775029 -0.259758
0.500976 -0.791715 0.226386
0.485900 -0.677986 -0.233070
0.467018 -0.675595 0.238437
0.465066 -0.571136 -0.262246
0.504781 -0.570258 0.244682
0.473019 -0.485558 -0.247707
0.485900 -0.499854 0.239754
0.466237 -0.391979 -0.248390
0.465993 -0.388027 0.247365
0.490242 -0.286251 -0.267174
0.472141 -0.315623 0.263125
0.468433 -0.211846 -0.237510
0.496536 -0.203601 0.220336
0.468482 -0.093579 -0.262929
0.496438 -0.080211 0.261027
0.489949 -0.017857 -0.254050
0.474922 0.002488 0.230972
0.467555 0.088651 -0.265759
0.491462 0.089627 0.239217
0.489266 0.218921 -0.227361
0.483899 0.210041 0.243706
0.494438 0.291472 -0.238144
0.477849 0.276591 0.241998
0.493755 0.366852 -0.240388
0.485997 0.409592 0.256733
0.466872 0.490974 -0.239071
0.499268 0.477605 0.232777
0.482728 0.583431 -0.224434
0.484485 0.577625 0.246390
0.506782 0.671594 -0.229508
0.468384 0.696721 0.265027
0.505123 0.780103 -0.226581
0.501952 0.799619 0.223653
0.477557 0.877976 -0.248000
0.494145 0.893540 0.239022
0.504977 0.962041 -0.162129
0.474044 0.959456 -0.035909
0.479362 0.984631 0.030835
0.480142 0.981557 0.151786
0.464774 0.951308 0.264539
0.570355 -0.966335 -0.248780
0.591481 -0.968872 -0.161105
0.585236 -0.964920 -0.041423
0.609143 -0.986290 0.037178
0.595043 -0.999854 0.142369
0.588554 -0.898078 -0.253367
0.564305 -0.874463 0.228532
0.592847 -0.762588 -0.249366
0.589920 -0.795375 0.243755
0.592603 -0.681304 -0.229069
0.587724 -0.691501 0.232826
0.601630 -0.602264 -0.242974
0.567233 -0.571770 0.235997
0.566598 -0.511075 -0.233948
0.572746 -0.508685 0.242486
0.588359 -0.412763 -0.264442
0.568550 -0.382026 0.228435
0.599093 -0.282153 -0.257806
0.596458 -0.313964 0.247707
0.596165 -0.171594 -0.247463
0.569331 -0.201747 0.259416
0.593530 -0.075234 -0.253367
0.572209 -0.074307 0.236339
0.571770 0.014539 -0.225703
0.585919 -0.000293 0.247853
0.590408 0.096507 -0.224434
0.576649 0.108802 0.238876
0.592018 0.193794 -0.224385
0.600166 0.213651 0.231265
0.564647 0.313769 -0.263417
0.599288 0.309914 0.267906
0.576308 0.412910 -0.259173
0.608216 0.369682 0.248000
0.570599 0.508392 -0.227947
0.594214 0.470628 0.220628
0.608753 0.603874 -0.231265
0.606655 0.575234 0.235070
0.591091 0.667399 -0.259612
0.567037 0.698819 0.242828
0.592701 0.760587 -0.266247
0.607972 0.775029 0.243609
0.595726 0.865242 -0.242828
0.569623 0.884319 0.256343
0.598800 0.975947 -0.240535
0.593970 0.992096 -0.141735
0.604996 0.990974 -0.054547
0.577430 0.993950 0.024785
0.566257 0.987754 0.141881
0.573136 0.953796 0.230191
0.663251 -0.958919 -0.131879
0.672814 -0.964627 -0.034251
0.664325 -0.969018 0.042155
0.659446 -0.964383 0.170082
0.663593 -0.887881 -0.220921
0.697112 -0.860461 0.223751
0.667350 -0.775761 -0.223849
0.683792 -0.795960 0.236875
0.659787 -0.697453 -0.260197
0.693501 -0.691306 0.268247
0.704040 -0.609143 -0.244682
0.695258 -0.587578 0.268052
0.683890 -0.505855 -0.237656
0.703893 -0.510831 0.265076
0.679596 -0.379245 -0.265466
0.688915 -0.375390 0.227996
0.665984 -0.272590 -0.258929
0.702088 -0.275517 0.236339
0.665349 -0.219457 -0.229850
0.688964 -0.200576 0.240974
0.679108 -0.093091 -0.264052
0.683450 -0.113925 0.239413
0.680279 -0.007611 -0.258685
0.668033 -0.023322 0.264393
0.689110 0.087188 -0.262929
0.687012 0.115291 0.262149
0.705016 0.201844 -0.236046
0.689403 0.201747 0.261173
0.703113 0.271224 -0.239559
0.698087 0.316159 0.245658
0.696770 0.374268 -0.224288
0.691452 0.377537 0.220677
0.679011 0.463554 -0.241657
0.660324 0.512002 0.253318
0.694477 0.594457 -0.223800
0.706235 0.603142 0.225459
0.672912 0.679206 -0.231948
0.680377 0.691696 0.245853
0.680084 0.773322 -0.246780
0.664959 0.801473 0.264198
0.701942 0.866754 -0.243950
0.676913 0.892613 0.232728
0.685060 0.977654 -0.154176
0.667203 0.951308 -0.070892
0.696916 0.971555 0.059475
0.664520 0.964774 0.160714
0.758197 -0.974044 -0.255757
0.769467 -0.972580 -0.130221
0.799619 -0.999024 -0.060353
0.798888 -0.986632 0.025078
0.778249 -0.964969 0.148566
0.802010 -0.889393 -0.234485
0.778103 -0.884075 0.237266
0.774737 -0.780152 -0.267125
0.777957 -0.791764 0.258733
0.787080 -0.683402 -0.227410
0.775078 -0.704869 0.227801
0.801181 -0.578991 -0.234680
0.783421 -0.571233 0.262051
0.777810 -0.479020 -0.262637
0.760100 -0.507123 0.233363
0.766784 -0.367877 -0.266393
0.790886 -0.389930 0.243560
0.796692 -0.291862 -0.268052
0.764686 -0.308060 0.225507
0.760978 -0.204040 -0.258392
0.794545 -0.188964 0.246731
0.768443 -0.076015 -0.259026
0.770882 -0.096604 0.237071
0.792252 0.009270 -0.266247
0.799766 0.022590 0.233460
0.804157 0.120706 -0.264393
0.790788 0.110265 0.257367
0.757416 0.209992 -0.255611
0.782592 0.173839 0.262929
0.799961 0.313281 -0.230094
0.758733 0.290984 0.247073
0.790057 0.376854 -0.224336
0.760783 0.414569 0.226044
0.802303 0.489022 -0.259514
0.778152 0.497707 0.268101
0.760831 0.595092 -0.262929
0.797034 0.602508 0.232143
0.795716 0.659007 -0.265466
0.798107 0.685597 0.241559
0.777664 0.767857 -0.257758
0.784055 0.799522 0.264100
0.797375 0.889783 -0.229655
0.800986 0.874512 0.266442
0.797521 0.971799 -0.150712
0.787763 0.964969 -0.025907
0.777810 0.951747 0.033470
0.762490 0.991901 0.151883
0.798107 0.995999 0.238778
0.867486 -0.974532 -0.158763
0.885197 -0.978679 -0.031470
0.898907 -0.954528 0.036885
0.873585 -0.975068 0.129098
0.861827 -0.960919 0.235217
0.856313 -0.867340 -0.250000
0.890076 -0.863388 0.221897
0.877976 -0.785714 -0.252391
0.888808 -0.777176 0.264393
0.856899 -0.690183 -0.239657
0.879928 -0.679840 0.223605
0.893931 -0.586212 0.237022
0.888368 -0.496243 -0.223214
0.864364 -0.506684 0.258246
0.879147 -0.401883 -0.261075
0.899737 -0.388808 0.219897
0.876073 -0.272883 -0.250732
0.867242 -0.309280 0.226434
0.859973 -0.197453 -0.226434
0.891833 -0.175400 0.239413
0.893491 -0.108314 -0.244682
0.889003 -0.075722 0.265076
0.894467 0.013661 -0.240730
0.865535 0.021419 0.236778
0.853923 0.087871 -0.260587
0.880660 0.077576 0.256196
0.876122 0.213212 -0.258002
0.858216 0.197160 0.249171
0.875244 0.293813 -0.263905
0.890027 0.310207 0.224776
0.879196 0.371048 -0.235168
0.861778 0.381391 0.229508
0.886319 0.510636 -0.246585
0.894565 0.496731 0.230094
0.865730 0.582943 -0.262588
0.875537 0.598995 0.239608
0.881879 0.681596 -0.224483
0.858167 0.661885 0.264344
0.868804 0.778201 -0.240096
0.885295 0.795521 0.252391
0.865974 0.874415 -0.223068
0.902127 0.887588 0.254733
0.861388 0.996243 -0.151639
0.893687 0.994584 -0.051522
0.864266 0.952430 0.031470
0.860119 0.968238 0.133343
0.960480 -0.978874 0.065525
0.963700 -0.885441 -0.234582
0.961114 -0.878659 -0.146077
0.987900 -0.898029 -0.070014
0.983314 -0.883733 0.047034
0.993901 -0.863681 0.145833
0.970824 -0.895248 0.228679
0.983753 -0.757660 -0.129147
0.962041 -0.763271 -0.062305
0.988437 -0.761710 0.071331
0.987412 -0.773175 0.141637
0.974239 -0.787129 0.240925
0.966140 -0.667350 -0.251708
0.979703 -0.668326 -0.169448
0.976239 -0.674912 -0.031274
0.968286 -0.684573 0.065476
0.984631 -0.689598 0.140954
0.956284 -0.680084 0.219604
0.951844 -0.563720 -0.150371
0.996682 -0.588456 -0.070502
0.986875 -0.580845 0.052498
0.961114 -0.567525 0.164764
0.979947 -0.475800 -0.231606
0.997463 -0.467311 -0.123829
0.957943 -0.492681 -0.026835
0.966042 -0.495316 0.034738
0.980338 -0.477215 0.131928
0.957162 -0.465262 0.230972
0.951503 -0.402908 -0.225020
0.953162 -0.398663 -0.153981
0.995121 -0.374268 -0.036739
0.978532 -0.390662 0.056011
0.996487 -0.399785 0.130074
0.965993 -0.273956 -0.163251
0.959358 -0.280201 -0.048985
0.992242 -0.306011 0.052596
0.968823 -0.270492 0.137832
0.971360 -0.189744 -0.244926
0.972336 -0.208333 -0.134026
0.974336 -0.195404 -0.043228
0.994096 -0.187207 0.066501
0.953406 -0.217750 0.147443
0.993804 -0.080552 -0.141247
0.975654 -0.097336 -0.061915
0.976044 -0.086553 0.037129
1.000000 -0.077674 0.160812
0.963359 -0.114413 0.233070
0.952820 -0.002488 -0.222043
0.991608 0.022541 -0.142711
0.966823 -0.020882 -0.026932
0.952332 0.006148 0.059817
0.997902 -0.009758 0.168521
0.964530 0.078064 -0.236436
0.996390 0.117145 -0.130123
0.960041 0.094994 -0.051132
0.995023 0.074258 0.059377
0.983314 0.079333 0.154079
0.993999 0.183499 -0.241413
0.994292 0.210285 -0.135587
0.953308 0.188964 -0.065281
0.997902 0.200673 0.070892
0.994438 0.185060 0.168228
0.958626 0.176669 0.241852
0.951308 0.282445 -0.141979
0.989657 0.291374 -0.067672
0.987119 0.306450 0.035226
0.960383 0.283909 0.146272
0.988046 0.402420 -0.220287
0.989754 0.379879 -0.140320
0.983119 0.394272 -0.028201
0.989364 0.390613 0.071429
0.989022 0.393931 0.161105
0.979606 0.395394 0.240340
0.988290 0.478630 -0.150273
0.988876 0.497609 -0.062842
0.989120 0.468628 0.032836
0.976825 0.510392 0.170472
0.956040 0.572746 -0.163007
0.984826 0.566550 -0.043082
0.989120 0.566501 0.049863
0.954577 0.601532 0.144174
0.975459 0.668423 -0.154908
0.966335 0.699161 -0.024883
0.973117 0.679742 0.059036
0.964969 0.673107 0.166130
0.955113 0.668374 0.229215
0.964920 0.762246 -0.162227
0.970189 0.764832 -0.057523
0.952674 0.772687 0.051473
0.952039 0.779616 0.170082
0.986144 0.864022 -0.154811
0.969799 0.876464 -0.066452
0.991315 0.860656 0.057865
0.991998 0.890564 0.156616
0.965213 0.896956 0.232387
0.991950 0.961700 -0.139442
0.952137 0.970482 -0.049229
0.969409 0.990876 0.056792
0.985314 0.965505 0.150810
