1636
-0.622463 -0.103218 0.139690
-0.557784 -0.248782 -0.124981
-0.829204 -0.491349 -0.175213
-0.567214 -0.014120 0.089837
0.542958 0.791324 0.095700
0.599223 0.841956 -0.042773
0.706493 0.631624 0.081752
-0.577752 -0.081782 -0.121667
-0.428976 -0.229456 -0.019637
0.454319 0.729960 -0.061807
0.517549 0.795135 -0.041273
0.726777 0.654218 0.047969
0.600466 0.699649 0.156464
-0.514042 -0.065865 0.159442
0.664449 0.570700 0.057575
0.576111 0.812027 -0.081754
0.647125 0.602422 0.092877
-0.696276 -0.086460 0.008987
-0.438970 -0.230324 -0.053346
0.476353 0.758337 0.093159
0.605107 0.734857 -0.155888
0.522944 0.714411 -0.141163
-0.756810 -0.207724 0.150908
0.681055 0.677746 0.126406
-0.454396 -0.208375 0.067131
0.689463 0.689679 -0.123401
-0.547700 -0.269761 0.108466
0.621134 0.563991 0.108044
-0.542019 -0.292964 0.063980
0.670965 0.791893 -0.110040
-0.645246 -0.041312 0.080706
0.477377 0.420688 -0.043726
0.765101 0.687270 -0.024502
-0.573691 -0.135379 -0.157206
-0.521994 -0.176097 0.151418
0.456849 0.756426 0.011787
0.630903 0.678271 -0.139751
0.502090 0.813927 0.035277
-0.425438 -0.167291 -0.112156
-0.505629 -0.272416 -0.053962
-0.937587 -0.388255 0.093824
0.636171 0.839432 0.108791
0.525036 0.674466 0.176712
0.652011 0.564663 0.091721
0.568122 0.612178 -0.155503
0.520089 0.740466 -0.125816
-0.519200 -0.097468 -0.159922
0.436448 0.761405 0.052212
0.553915 0.686506 -0.158657
-0.372975 -0.020031 -0.107865
-0.439837 -0.243661 0.014108
-0.487968 0.019900 0.106924
0.661831 0.593248 -0.090475
-0.442775 -0.074044 -0.156979
0.580533 0.562302 -0.116052
-0.507833 -0.185771 -0.154588
0.624296 0.884201 -0.010962
-0.480606 -0.233587 -0.075849
-0.669834 -0.062337 0.037367
-0.552613 -0.001037 0.049191
0.386107 0.708431 0.047256
0.426633 0.761459 0.025190
0.607583 0.640523 0.144306
-0.521877 -0.227783 0.138324
-0.764213 -0.310365 -0.191525
0.789347 0.697615 0.022655
0.725418 0.776536 -0.110280
0.625996 0.740015 0.159952
0.492318 0.617590 0.157152
0.672073 0.625070 0.109632
0.708588 0.591572 -0.049575
-0.530886 -0.129554 0.155621
-0.605948 -0.105070 -0.125696
-0.501527 -0.093518 0.174631
0.606305 0.523110 0.049845
0.576770 0.583495 -0.138929
-0.502250 -0.292974 -0.007645
0.797547 0.816643 0.090971
0.542969 0.745336 0.140768
0.670109 0.582822 0.025855
-0.562091 -0.000471 0.008675
0.479944 0.784160 -0.006057
-0.714864 -0.151782 -0.107849
0.457828 0.669631 -0.127946
0.589277 0.685604 -0.155389
0.593099 0.572167 0.109557
0.586502 0.541573 -0.091857
-0.513834 -0.210011 -0.110742
0.447658 0.769515 0.079393
0.600781 0.772210 -0.114470
0.453454 0.688505 0.141187
-0.721923 -0.126207 -0.048558
0.568805 0.658301 0.158858
-0.527900 0.022582 0.079505
-0.522301 -0.141530 -0.163613
0.488537 0.735617 -0.090432
-0.594171 -0.063418 0.109411
-0.485890 -0.064048 -0.159338
-0.449708 -0.052466 0.174471
-0.552108 -0.061867 -0.111225
-0.542723 -0.021533 -0.090350
-0.516919 -0.042951 0.140528
0.525322 0.594019 0.156261
0.514565 0.624611 -0.156443
-0.559153 -0.021867 -0.042549
0.528895 0.687515 -0.145817
0.407209 0.688406 -0.089733
-0.467141 -0.251720 -0.024545
-0.438367 -0.116289 0.141694
-0.597272 -0.172028 0.175210
0.902443 0.444043 0.057151
-0.790801 -0.144417 0.015536
-0.376471 -0.201408 -0.016059
0.507955 0.754134 0.109701
0.662132 0.644822 -0.122750
0.667243 0.604258 0.067270
-0.546913 -0.081030 0.144047
0.416034 0.707395 0.092351
-0.470186 -0.229339 0.106654
0.684580 0.563999 -0.011589
-0.469030 0.039116 0.024249
0.415799 0.701210 -0.052665
0.645100 0.536500 -0.014941
-0.419154 -0.143950 0.130246
-0.433772 -0.136145 -0.127164
-0.532020 0.021184 -0.025156
0.414150 0.620373 -0.127359
-0.378521 -0.172655 -0.057340
0.566550 0.599215 0.141817
-0.420400 -0.229240 0.051595
0.913063 0.399169 -0.076786
0.874621 0.358560 -0.107273
0.914918 0.436021 -0.038330
0.406553 0.611725 0.140509
0.720359 0.670282 -0.092324
0.865831 0.405016 -0.091051
0.396658 0.723078 0.015125
-0.419108 -0.206603 0.093320
0.477036 0.771265 -0.056599
0.831325 0.476502 0.057679
0.557402 0.719502 -0.141891
0.350678 0.668379 0.009265
0.885426 0.481577 0.019709
-0.473556 -0.168014 -0.119588
0.642426 0.857068 -0.061799
-0.456299 -0.028221 -0.109621
0.494346 0.784250 0.076415
0.854231 0.447802 0.089642
-0.392221 -0.226305 0.005574
-0.773777 -0.581392 -0.003664
-0.384904 -0.020746 0.140851
0.483171 0.652934 0.157251
0.582828 0.499291 0.058381
-0.450925 -0.043620 -0.135057
0.925899 0.395129 0.092823
0.415917 0.733218 0.063006
0.520281 0.466706 0.050370
0.552967 0.705258 0.157745
0.760205 0.438887 0.041196
-0.380439 -0.075098 -0.142156
-0.451333 -0.087616 0.159986
-0.450031 -0.038732 0.141841
0.955340 0.400341 0.031768
0.710216 0.778262 0.141843
-0.565592 -0.081470 -0.157531
0.360783 0.666762 0.055005
0.790684 0.433667 -0.057468
0.556228 0.852203 0.066677
0.853351 0.452486 -0.045607
0.534742 0.592005 -0.158455
0.863862 0.374614 0.141550
-0.385603 -0.071295 0.159405
-0.480299 0.032885 0.064516
-0.354710 -0.184850 -0.037500
0.604584 0.629137 -0.142249
0.564823 0.510144 0.090224
0.497215 0.589587 0.173377
-0.605315 -0.002355 0.049343
-0.400837 -0.168004 -0.079921
-0.649353 -0.060314 -0.011106
-0.468275 0.003179 -0.052767
0.414502 0.659704 -0.115372
0.978748 0.271736 0.071305
-0.439381 -0.199721 -0.088137
0.846215 0.477940 0.013241
0.890146 0.435602 -0.074483
-0.362411 -0.083314 0.140442
0.750646 0.407095 -0.005372
0.968685 0.338512 0.091422
0.519739 0.537077 0.111604
0.998092 0.293559 -0.020240
0.763602 0.444104 0.074074
0.609980 0.582967 -0.109149
0.415351 0.686707 0.118726
0.730069 0.633967 0.002951
0.955543 0.384218 -0.034357
0.976229 0.349093 0.035160
0.771300 0.373064 -0.082478
0.848425 0.376234 -0.106022
0.500620 0.710120 0.147039
0.440144 0.597731 -0.159338
0.492940 0.656155 -0.157651
-0.405422 -0.104150 -0.156349
0.629862 0.596552 0.126518
-0.322381 -0.046788 -0.160355
0.350651 0.644678 -0.042055
-0.472142 -0.144489 0.158052
-0.480211 -0.010929 0.139610
-0.458383 0.000020 -0.089021
0.772965 0.452339 -0.003205
0.937034 0.309866 0.132221
0.749138 0.388290 -0.029076
-0.417971 0.057683 0.074552
-0.391030 0.041171 -0.042239
0.591292 0.515062 -0.040478
0.899988 0.340017 -0.107801
0.499128 0.544668 -0.159386
0.302509 0.600757 0.091513
0.427076 0.545650 0.155594
-0.384100 -0.167174 0.096719
-0.518224 -0.015649 0.107278
0.519737 0.447181 -0.007747
0.916751 0.463781 0.029078
-0.376132 -0.198211 0.054245
0.373397 0.667173 -0.078499
0.525151 0.783671 -0.092068
0.726208 0.917613 0.050883
0.516580 0.562929 0.140218
0.809654 0.458882 -0.027461
0.771511 0.346349 -0.100759
0.537127 0.503899 -0.106937
0.456390 0.607210 0.156552
0.837468 0.357330 0.125582
0.354400 0.693877 0.033327
0.810834 0.452195 0.089400
-0.409072 0.020840 0.108543
0.635127 0.675710 0.155493
0.330072 0.423653 -0.158930
0.894339 0.432130 0.091612
-0.648456 -0.353455 0.154988
0.354616 0.658493 0.108319
0.354149 0.597782 -0.108023
0.727964 0.380901 0.049935
-0.479720 0.022865 -0.020155
0.892535 0.354776 0.141809
0.341463 0.646831 -0.007266
-0.597665 -0.064968 -0.101218
-0.352089 -0.064419 -0.157451
-0.554368 -0.291205 -0.092845
-0.414582 -0.051476 0.158148
-0.469841 -0.120342 -0.157158
-0.348313 0.049368 0.106035
0.896868 0.389397 -0.109216
0.404173 0.553856 -0.160854
-0.350368 -0.134197 -0.110248
0.957069 0.269364 -0.106086
0.452470 0.728733 0.108335
0.489914 0.418500 -0.014060
0.903609 0.300299 -0.142780
0.745701 0.107309 -0.126670
-0.357151 -0.193146 0.006135
0.546504 0.521178 -0.071104
0.781467 0.395481 -0.059211
0.767231 0.421256 0.015600
0.340481 0.209472 0.045551
0.999122 0.198411 -0.030477
-0.265142 0.107411 0.048927
0.843213 0.247381 -0.160461
0.602156 0.540239 0.083046
0.499568 0.516775 -0.111556
0.311886 0.551260 -0.098793
0.892303 0.265436 0.157136
0.980936 0.082978 -0.037439
-0.293930 -0.167158 0.017537
-0.304646 -0.143899 0.064457
-0.332860 -0.035436 0.158842
-0.370534 -0.123368 0.122796
0.434847 0.517116 0.143938
0.997558 0.232045 0.018666
0.437878 0.635392 -0.156208
0.601371 0.507691 0.016080
0.711257 0.335601 0.075273
0.999514 0.181288 0.052964
0.438263 0.744658 -0.018394
0.807602 0.374072 0.124962
0.998778 0.328567 0.012854
0.970972 0.214665 0.092535
0.956944 0.165770 0.106750
0.931852 0.183278 -0.124677
0.354766 0.586748 -0.136426
0.958625 0.322047 -0.071235
-0.356783 -0.098802 -0.126334
-0.352607 -0.164874 -0.086141
-0.437433 0.044749 0.052140
-0.349597 0.083093 0.034968
0.389365 0.642826 0.110654
0.748055 0.407575 0.054173
0.487704 0.460128 -0.075355
0.976838 0.120307 0.015829
0.938606 0.235202 0.124762
0.422471 0.483379 -0.142550
-0.273545 -0.130314 -0.059331
0.548586 0.647050 -0.159610
0.706731 0.353205 0.044817
-0.421915 -0.026118 -0.108815
0.982919 0.131061 -0.025033
0.793785 0.813323 -0.025284
-0.679766 -0.101697 0.108880
-0.426879 0.004303 0.143242
-0.589013 -0.226988 -0.172475
0.642853 0.542363 0.041831
0.935764 0.107469 0.122633
0.346261 0.650210 0.074979
0.826351 0.311133 0.158126
0.956202 0.369197 0.061186
0.750510 0.310786 -0.081845
0.524383 0.625876 0.169833
0.440405 0.558272 -0.159706
-0.275125 -0.053072 -0.141520
0.766927 0.296443 0.108495
0.903940 0.313140 0.151031
0.959783 0.301647 0.104092
0.978033 0.208760 -0.055534
0.783399 0.398540 0.091828
0.811365 0.344215 -0.126729
0.772368 0.423818 -0.025156
0.531161 0.503334 0.108559
0.313530 0.603877 -0.055443
-0.391247 0.047076 0.090678
-0.403185 -0.102447 0.159135
0.501087 0.437347 0.032884
0.417779 0.572872 0.158770
0.828814 0.303010 -0.123591
0.953395 0.055007 0.057986
-0.295528 0.010985 -0.126187
0.446935 0.436549 0.101955
0.372388 0.484873 -0.156317
-0.286386 -0.086845 -0.109760
0.934852 0.419356 -0.002471
0.873858 0.467258 0.057895
0.751732 0.276131 -0.099502
-0.424370 0.041579 0.001017
-0.506055 -0.001658 -0.063187
0.769109 0.263498 -0.125155
0.373664 0.550662 -0.149384
0.439282 0.709415 -0.104156
0.943217 0.211156 -0.123852
-0.279859 -0.102754 0.124560
-0.346744 -0.019916 -0.150660
1.000000 0.273825 0.026773
0.873869 0.200765 0.163866
0.335318 0.578155 0.124037
0.938507 0.363091 -0.078672
0.249780 0.572917 -0.008843
0.922961 0.187073 0.139965
-0.320895 0.041683 -0.096335
-0.273521 -0.149335 0.043104
0.788138 0.235079 -0.123425
0.317220 0.517546 -0.141641
0.899366 0.396917 0.133582
0.291624 0.539980 0.123820
0.543441 0.481129 -0.033022
0.968616 0.063047 -0.012062
-0.402412 0.019233 -0.089875
0.487419 0.514899 0.126574
0.887374 0.161343 -0.142564
0.731745 0.354355 -0.023283
0.808000 0.348687 0.157993
-0.313796 -0.180044 -0.006629
0.956562 0.142651 -0.065434
0.270887 0.507259 -0.093042
0.343643 0.648288 0.033711
-0.464336 -0.248221 0.054653
-0.332620 -0.147195 0.091409
0.560591 0.541634 0.120832
-0.399735 -0.041696 -0.159244
0.728791 0.677458 0.096316
0.478749 0.473601 -0.104591
0.911377 0.119275 -0.124469
-0.346424 -0.007697 0.157675
-0.326205 -0.061483 0.145643
0.976101 0.180706 0.083537
0.310560 0.578990 -0.073642
0.957526 0.115186 0.064423
0.270965 0.586732 0.079625
0.226889 0.526472 0.058696
0.859832 0.216439 -0.160635
-0.350256 0.042446 -0.075977
-0.285164 0.086927 -0.042541
0.656393 0.713714 -0.158879
0.332545 0.610089 -0.030234
-0.256293 0.043644 -0.110475
-0.374531 0.078439 -0.008462
0.744623 0.375633 0.015539
-0.441382 0.042569 0.102251
-0.265094 -0.072261 -0.123103
0.917047 0.017813 0.043995
0.732722 0.318520 0.093221
0.479301 0.601593 -0.159261
0.373941 0.625593 -0.120319
-0.307680 -0.124857 -0.102785
0.402702 0.512116 -0.158794
0.688972 0.266295 0.071139
0.358155 0.541589 0.147629
-0.248627 0.005130 0.157390
0.311083 0.619367 0.008102
0.316129 0.470407 0.160018
0.865332 0.136163 0.174727
0.731105 0.313866 -0.040073
0.332676 0.545175 -0.128415
-0.215660 -0.092072 0.092180
0.829945 0.417827 -0.070213
0.707982 0.286039 0.019421
0.979322 0.114437 -0.054731
0.996993 0.140265 -0.000427
0.935361 0.153936 0.130822
0.437321 0.646242 0.131941
0.822636 0.204290 0.177033
0.853041 0.288347 -0.156792
0.859181 0.291250 0.175207
0.979581 0.247349 0.115519
0.888428 0.457033 -0.016043
-0.262151 0.077078 0.109976
0.936535 -0.000372 -0.003077
-0.296238 -0.024610 -0.140600
0.802393 0.374507 -0.090582
0.860145 0.333733 -0.131778
0.916081 0.153292 -0.125019
0.338803 0.616104 0.109992
-0.355785 0.084945 0.080308
-0.495958 -0.039885 -0.109005
0.980053 0.281783 -0.069538
0.997099 0.190574 0.010514
0.935577 0.032632 -0.023760
0.457278 0.421657 0.065498
0.444331 0.472102 0.123212
0.436790 0.459667 -0.121275
0.392226 0.533858 0.156208
-0.172516 -0.072093 -0.091526
0.378086 0.441620 0.143706
0.271664 0.583372 0.026546
-0.286514 -0.067098 0.126195
0.915099 0.250692 -0.107954
0.894435 0.098994 -0.113229
0.428787 0.388370 -0.075401
0.811706 0.273366 0.171768
0.510939 0.489105 -0.076497
-0.446647 -0.183668 0.125019
0.979728 0.378214 0.009340
-0.214833 -0.103611 -0.075331
-0.197643 -0.125305 -0.003602
0.728282 0.371142 0.087582
-0.364741 -0.047727 0.157347
0.790849 0.305111 0.143591
-0.403909 -0.197384 -0.040390
-0.283573 -0.122896 0.089592
0.416619 0.382390 0.124834
-0.219586 -0.002662 -0.122475
-0.327083 0.105687 0.002911
0.886699 0.250743 -0.157275
0.437798 0.374849 -0.002596
0.558344 0.462789 0.024534
0.847894 0.178843 0.188859
0.915577 0.043586 0.067932
0.878368 0.084526 0.142470
-0.289081 0.037923 -0.106609
0.937141 0.350517 0.119548
0.844478 0.402919 0.108063
-0.519320 0.032317 0.025148
0.874274 0.037419 -0.107769
0.323937 0.548698 0.142639
-0.274250 -0.147835 -0.011936
0.912919 0.220437 0.156960
0.915457 0.031484 -0.058584
-0.314821 -0.153196 -0.049698
-0.301732 -0.082965 -0.151541
0.851854 0.170747 -0.156632
-0.230863 -0.128521 0.013601
0.885106 -0.022345 -0.001665
-0.314317 0.020284 0.125144
0.394147 0.459280 -0.144202
0.277799 0.542718 -0.076025
-0.319851 -0.102450 0.121734
0.549189 0.831410 -0.036025
-0.213939 0.069547 -0.092039
-0.307747 0.106055 0.054536
0.737677 0.193763 -0.094101
-0.205459 -0.065574 0.106659
0.493858 0.453745 -0.043117
-0.233617 -0.066583 -0.109432
-0.239493 -0.041955 0.137470
0.374227 0.389995 -0.112810
0.311720 0.485103 -0.138308
-0.374579 0.017080 0.126689
0.768981 0.346715 0.121563
0.975284 0.086100 0.037204
0.843782 -0.003804 -0.092551
0.260899 0.470791 0.141251
0.352895 0.456865 0.156000
-0.147563 -0.010934 0.123009
0.724708 0.320745 0.008793
0.957979 0.174760 -0.094390
-0.210155 -0.007011 0.151797
0.121855 0.291282 -0.105469
0.345805 0.611175 -0.075385
0.251226 0.540498 -0.031790
0.772971 0.115795 -0.155058
0.228119 0.486028 0.074488
0.796563 0.226983 0.173542
0.193224 0.457673 0.028131
0.376175 0.688708 0.082896
0.712209 0.243701 -0.042837
0.875438 -0.018905 -0.054015
0.758817 0.352890 -0.057954
0.194259 0.125335 -0.080425
-0.332545 0.083197 -0.042170
0.309714 0.396696 0.159210
0.843643 0.098431 -0.142783
0.978826 0.129583 0.102403
-0.140190 -0.085195 0.068385
0.776304 0.143075 0.172811
0.302642 0.572370 0.109579
0.828734 0.042908 -0.141550
0.840390 0.024365 0.126732
0.455653 0.387220 -0.035304
-0.190531 -0.086612 -0.059304
0.401536 0.593891 -0.155567
0.290439 0.420106 0.156387
0.812899 0.213704 -0.152952
0.437259 0.397072 0.101434
0.808344 0.266410 -0.142284
-0.305650 0.061691 -0.075830
-0.163401 -0.086047 0.045727
0.875368 0.122938 -0.139375
-0.225544 0.123931 -0.002799
0.896097 0.077585 0.110198
0.892994 0.171254 0.156840
0.903769 0.002232 0.017028
0.903035 0.060629 -0.092217
0.540567 0.551305 -0.112965
-0.231775 -0.111955 0.064545
-0.265999 0.049534 0.139097
0.996224 0.224381 0.061378
0.463114 0.557040 0.155535
0.238647 0.563169 0.059427
-0.260229 0.117220 0.091809
0.415228 0.421038 0.142001
0.768445 0.258711 0.139460
0.186536 0.467434 -0.003917
0.824787 -0.041512 0.049698
0.427453 0.379799 0.058413
0.346171 0.505196 0.160261
0.256966 0.437417 -0.142348
0.224029 0.457644 -0.089223
-0.190048 0.125348 0.053143
0.787276 0.300070 -0.108765
0.889234 0.004020 0.058040
0.963439 0.234073 -0.092351
-0.249916 -0.101873 -0.091999
0.850773 -0.030838 -0.075275
-0.260622 0.011233 -0.124242
-0.207033 0.084838 -0.063795
-0.295680 -0.022510 0.155124
0.937189 0.271368 0.142414
-0.122423 -0.082623 -0.014012
0.344740 0.458324 -0.158583
0.351382 0.330106 -0.109531
0.936509 0.424720 0.055779
0.978537 0.338221 -0.038893
0.852465 0.099514 0.156992
-0.328185 0.007836 -0.109515
0.532076 0.499462 0.060476
0.768576 0.109142 0.175907
0.664897 0.222676 0.049033
-0.168156 -0.105495 -0.018917
-0.919689 -0.336372 -0.062304
0.184612 0.417726 0.087606
0.838247 0.025952 -0.107246
-0.392330 0.061280 0.046629
0.233635 0.542395 0.015883
0.368695 0.686536 -0.019840
0.709463 0.299726 0.054875
0.850493 -0.018379 0.075665
-0.178870 0.004831 0.142190
-0.107141 -0.045616 -0.074264
0.986295 0.104019 -0.010330
0.385018 0.343982 0.108389
0.896279 0.001584 -0.027763
0.293420 0.520142 -0.117459
0.250086 0.480579 0.113771
0.358611 0.410828 0.157905
0.395425 0.314971 0.098544
0.791495 0.177794 0.175373
-0.199916 -0.041595 -0.108765
0.781294 0.045793 0.156795
0.749920 0.030830 -0.141827
-0.155518 0.106530 -0.018970
0.206454 0.460216 -0.048417
-0.187777 -0.104507 0.028430
-0.106084 -0.022785 -0.092674
-0.246879 -0.088849 0.109344
-0.220989 0.042067 -0.112719
0.265035 0.530662 0.092220
0.796856 0.161100 -0.141008
0.757563 0.235532 -0.093715
-0.174688 0.009797 -0.106953
-0.138621 0.067138 0.110830
-0.227845 0.086380 0.125107
0.436002 0.350912 0.021044
0.809465 0.079093 -0.140015
0.424520 0.355508 -0.056201
0.280843 0.449465 0.156242
0.282300 0.348700 -0.158996
-0.229165 0.124403 0.043307
0.727857 0.262799 0.094595
0.730929 -0.021437 0.135909
0.814874 -0.059159 -0.022802
-0.209371 -0.079701 -0.091764
0.852980 0.056104 0.139965
0.948741 0.084486 0.083951
0.326349 0.584437 -0.108362
0.674295 0.188316 0.090915
-0.240253 0.102391 -0.038963
-0.154032 -0.058745 0.106969
-0.206996 0.037856 0.141758
0.366542 0.579260 0.143818
-0.387492 -0.144641 -0.120541
-0.058986 -0.062220 -0.013473
0.657385 0.188666 -0.011563
0.935804 0.414150 -0.057471
0.873829 0.013491 -0.075387
0.456323 0.503571 -0.142580
-0.164159 0.104689 0.096052
-0.137807 0.039241 -0.105656
0.954756 0.200242 0.124616
0.761688 -0.042014 0.085498
-0.481255 -0.053859 0.160651
-0.222697 -0.123123 -0.041063
0.705487 0.273884 -0.018111
0.825636 0.123405 -0.156797
-0.116217 -0.030892 0.110251
0.361101 0.413125 -0.140047
0.496326 0.461751 0.090224
-0.086836 -0.004778 -0.109133
0.691072 0.135384 -0.110331
0.393824 0.281193 -0.053645
-0.144583 0.039124 0.142857
0.667694 0.078265 0.159410
0.699937 0.115750 0.140805
0.181125 0.458887 0.062736
0.293823 0.438508 -0.153259
0.775588 -0.004951 -0.110715
0.623439 0.560845 -0.062330
0.935134 0.115560 -0.092492
0.756832 0.061755 0.176438
0.196602 0.309855 -0.158396
0.815522 0.130813 0.175877
0.290669 0.356196 0.157761
0.709026 0.068339 -0.142558
0.316329 0.386443 -0.160304
0.228581 0.431303 -0.122235
0.729653 -0.082073 -0.008163
0.267965 0.469046 -0.110966
0.227498 0.496460 -0.015728
0.856881 0.339491 0.157993
0.824902 -0.000196 0.109032
0.414756 0.331230 0.058397
-0.105142 -0.080357 0.051977
0.742062 0.265059 -0.057447
0.407684 0.413339 -0.109800
-0.160938 0.102967 -0.062403
0.419058 0.354149 -0.017543
0.783703 -0.043148 -0.086141
0.700767 -0.011897 -0.141536
0.771663 0.198091 -0.122513
0.379809 0.374998 0.124066
0.227263 0.375294 0.148491
0.285318 0.273689 0.155549
0.612037 0.190238 0.033465
0.260846 0.252539 -0.139805
0.221691 0.366227 -0.140445
-0.199086 0.103627 0.082875
0.814119 -0.042497 0.009228
0.142256 0.378000 0.048145
0.318296 0.433566 0.159309
-0.112112 0.126423 0.050904
0.685751 0.250887 0.031328
-0.184271 -0.089452 0.075048
-0.069182 -0.061230 0.062293
-0.254580 0.078948 -0.090243
-0.273089 0.105815 0.006132
0.391919 0.354993 -0.093723
0.996315 0.239895 -0.023939
0.182173 0.366536 0.124770
0.788053 0.027076 -0.127351
-0.176466 0.063698 -0.094283
0.247920 0.439866 0.128122
0.166437 0.339897 -0.112317
-0.134394 0.101980 0.108148
0.505370 0.104163 -0.061266
0.208808 0.388084 -0.123908
0.303307 0.625387 0.062304
-0.030161 -0.079922 -0.008523
0.806039 -0.039356 0.086656
0.684796 0.229176 0.074253
0.332785 0.232352 0.079649
0.394219 0.274049 0.029385
0.709194 -0.066343 -0.058072
-0.189261 -0.029128 0.125664
0.979055 0.163083 -0.038258
0.779300 -0.063018 0.046560
0.394814 0.281561 -0.025196
0.166547 0.437206 0.022477
0.164722 0.375038 -0.015152
0.700073 -0.080560 0.056703
0.665863 -0.018481 0.149614
0.808758 0.021936 0.149134
0.747986 0.208263 0.154729
0.719457 0.094650 0.175784
0.320228 0.250620 0.112175
0.633324 0.162904 0.106232
0.494215 0.699774 -0.124349
0.353181 0.212223 -0.036980
0.312975 0.328953 0.141101
0.241854 0.307125 0.156400
0.752882 0.014411 0.159565
0.858402 0.070996 -0.123236
-0.073579 0.037091 0.110192
-0.084934 -0.063525 -0.039360
-0.135045 -0.102973 0.026680
0.459386 0.394798 0.018212
-0.146072 -0.035383 -0.092757
0.236282 0.336495 -0.155650
0.231775 0.282039 -0.159623
0.712948 -0.082823 -0.089082
0.711147 0.033200 -0.139479
0.637142 0.073067 -0.127209
0.187305 0.360612 -0.093154
0.709434 0.224488 -0.073351
0.206230 0.454375 0.109862
0.706245 0.104059 -0.139319
-0.114431 0.114968 -0.041127
0.375092 0.266073 0.003576
0.122856 0.377741 0.073946
0.322493 0.296732 -0.107302
0.311875 0.211602 -0.102262
0.240130 0.500441 -0.070691
0.664598 -0.035439 -0.126118
-0.033742 -0.018518 -0.057287
-0.181010 0.125092 0.017006
0.321743 0.335019 -0.140813
0.727700 -0.088750 -0.038386
0.802353 -0.039369 -0.054741
0.394491 0.478602 0.144936
-0.094754 0.106813 0.075958
-0.436445 0.019970 -0.048206
0.764874 -0.034710 -0.108586
-0.172908 0.083856 0.124263
0.611461 0.172092 0.076866
0.936818 0.038532 0.023205
0.104000 0.336220 0.004366
0.731889 0.153367 0.174506
0.895398 0.117703 0.143826
0.278162 0.308038 0.160405
0.259912 0.398654 0.155738
-0.139571 -0.075997 -0.059115
-0.020631 0.023185 -0.093456
0.686224 0.217515 -0.023715
0.853153 -0.036253 -0.025054
0.285294 0.251047 0.131049
0.727614 -0.088851 0.027683
0.609598 0.165898 -0.050867
-0.021699 -0.007711 -0.084847
0.394227 0.320743 -0.044708
-0.082012 -0.024850 0.089789
0.978644 0.319013 0.058619
0.096246 0.332025 0.055598
0.130338 0.313252 0.117307
0.202849 0.355259 0.143903
-0.040031 -0.042524 -0.033674
0.734665 -0.062711 0.117443
-0.096560 0.034609 -0.107361
0.673925 -0.070324 -0.093821
0.634159 0.058609 0.156269
-0.062911 0.062366 -0.093039
0.662044 0.144703 -0.088556
0.374939 0.292144 -0.087593
0.692615 -0.042516 0.135732
0.737800 0.149919 -0.125651
0.706600 0.042590 0.176307
0.352484 0.328564 0.117816
0.385000 0.293137 0.056940
-0.029045 -0.060568 0.034877
-0.053374 0.007815 0.109773
-0.124764 0.002013 -0.109533
0.585261 0.046868 -0.127183
0.650279 0.123843 0.140872
-0.249102 -0.035965 -0.126094
0.573533 0.790334 0.142633
0.173226 0.296894 0.142847
-0.700391 -0.898712 -0.032625
0.693482 0.177186 -0.091433
0.569320 0.126378 0.121056
-0.304321 0.076216 0.107169
0.744226 -0.000951 -0.126062
-0.001242 -0.005947 0.067561
0.163238 0.376831 -0.053292
0.164391 0.375217 0.094758
0.084173 0.162571 0.139559
0.207956 0.145650 0.111118
0.256888 0.390494 -0.139511
0.163625 0.305009 -0.125136
0.303376 -0.146394 0.076068
0.720257 0.204135 0.107153
0.614062 0.115507 -0.107209
-0.023340 0.108417 -0.072239
-0.000644 -0.020335 0.039083
0.098452 0.244680 0.109205
0.144756 0.391559 0.014669
0.274351 0.188842 0.093085
0.224159 0.230065 -0.155365
0.700473 0.000516 0.149659
0.566246 -0.019393 -0.136829
0.310375 0.191153 0.070685
0.347265 0.510472 -0.159581
0.205715 0.494247 0.031539
-0.122298 0.122629 0.015736
0.669596 0.064950 -0.143871
0.204271 0.310173 0.158636
0.581384 0.064555 0.157403
-0.052629 0.166264 0.058322
-0.107651 -0.063362 0.088583
-0.000647 0.108377 -0.110489
0.651934 0.207327 0.020248
0.538744 0.164313 0.026373
-0.095723 0.068816 0.121792
0.262991 0.166259 -0.090414
-0.029008 0.124041 0.106246
-0.022593 0.049344 -0.110486
-0.000217 0.054116 0.106806
0.242860 0.265246 0.157884
0.699200 -0.100366 -0.008304
0.750558 -0.062415 -0.071603
0.040074 0.214761 0.104879
-0.007006 0.018614 0.091956
-0.021221 0.167387 0.069071
0.624643 -0.066169 0.110304
0.539657 0.145653 -0.005353
0.353752 0.218678 0.001302
0.394598 0.312871 0.010919
0.327464 0.220109 -0.058736
0.122493 0.321103 -0.043464
-0.076998 -0.081785 0.012755
0.642524 -0.125017 0.022760
0.587249 0.185071 0.061791
0.060370 0.278594 0.017799
0.623642 0.132254 -0.075753
0.872534 0.021870 0.103841
0.619770 0.014598 -0.139959
0.074623 0.230775 -0.099065
0.222518 0.195863 0.123191
0.165453 0.142261 -0.097672
0.362061 0.271784 0.101613
0.140123 0.203847 -0.139647
0.040501 0.014342 -0.040710
0.185386 0.352097 -0.143540
0.205808 0.399999 0.128389
0.340906 0.359625 0.159746
0.852772 0.232875 0.175066
0.956202 0.063453 -0.062888
0.643229 -0.103645 -0.047539
0.328567 0.187212 -0.029305
0.400714 0.094578 0.091324
0.040093 0.213133 -0.064086
0.604877 0.085513 -0.125355
0.103117 0.250762 -0.095510
0.166058 0.216221 0.142406
0.099784 0.135699 -0.123876
0.532396 0.102170 -0.087323
0.635282 -0.019708 0.153371
-0.043391 0.157341 -0.016272
0.618767 0.177995 -0.008886
0.139027 0.334197 -0.080119
0.001891 0.250764 0.035440
0.035543 0.271901 -0.034322
-0.061763 0.102845 -0.064521
-0.081113 0.143801 0.043560
0.480184 0.145911 0.053540
0.115194 0.354600 0.035147
0.078161 0.312967 0.073367
0.540714 0.154274 0.092540
0.336436 0.251618 -0.089701
-0.052114 0.015876 -0.108479
0.652371 -0.103520 0.068476
0.177295 0.222646 -0.139351
0.288272 0.147646 0.017025
0.727785 -0.063284 0.068876
0.637572 -0.094628 -0.075150
0.144204 0.288790 0.134257
0.063930 0.250834 0.094819
-0.102957 0.013597 0.111236
0.030852 -0.000935 0.005759
-0.195017 0.122786 -0.034890
0.458596 0.431106 -0.076535
0.623077 0.046038 -0.141681
0.153018 0.153952 0.124816
0.606228 0.043829 0.159290
0.052013 0.137738 -0.110961
0.125634 0.161442 -0.127353
0.749085 0.070412 -0.143519
0.029910 0.158392 -0.106539
0.586251 -0.104200 0.075190
0.591044 -0.095472 -0.092017
0.290426 0.255997 -0.106835
0.023577 0.136284 0.107679
-0.002694 0.204375 -0.034810
0.675547 -0.073067 0.090475
0.124572 0.332548 0.082371
0.291771 0.158627 -0.019109
0.542328 0.129308 0.110176
0.585568 0.139080 -0.058154
-0.067845 -0.019815 -0.071708
0.008356 0.077774 -0.106587
-0.052851 0.101532 0.108834
0.634137 0.206171 0.070117
0.716167 -0.042865 -0.108485
0.022072 0.228464 -0.038536
0.209421 0.218809 0.143890
0.648937 -0.040947 0.125912
0.101278 0.315606 -0.019208
0.177071 0.416936 -0.022872
0.291101 0.499763 0.136378
0.372540 0.245395 0.048070
0.935150 0.303854 -0.097240
0.165981 0.329973 0.124063
-0.006382 0.134618 -0.091678
0.046510 0.087071 0.110646
0.512406 0.056472 0.143962
0.210313 0.198590 -0.125296
-0.019158 0.178731 -0.024120
0.768848 -0.067309 -0.013932
0.649201 -0.106687 -0.013158
0.545266 0.164057 0.060108
0.601358 0.122042 0.123476
0.258305 0.145834 -0.054501
0.237368 0.167750 0.106227
0.312033 0.287840 0.128824
0.124756 0.242922 0.139228
0.612611 -0.015508 -0.125392
0.568754 -0.060987 0.150673
-0.064976 0.126746 -0.007987
0.104339 0.061561 -0.058005
0.039844 0.282557 0.053978
0.601913 0.000679 0.155856
-0.000330 -0.010982 -0.043277
0.051172 0.076259 -0.090739
-0.397496 -0.381042 -0.022623
0.288184 0.582636 -0.030602
0.131875 0.254487 -0.142951
-0.039311 0.055404 0.109523
0.540241 -0.138538 0.020390
0.808205 0.072058 0.172200
0.561298 -0.127080 -0.042061
0.519393 -0.125276 -0.084554
0.076963 0.271997 -0.015402
0.279835 0.299555 -0.142385
-0.032079 0.098495 -0.108375
0.512772 0.026870 0.159976
-0.325658 -0.168639 0.042864
-0.057926 0.146915 0.092007
-0.002051 0.198755 0.099489
-0.011262 0.208084 0.051902
0.578147 0.113890 -0.092167
0.076365 0.115429 -0.109557
0.298578 0.218075 0.106123
0.619685 -0.102714 0.047982
0.125457 0.356159 -0.022252
-0.033368 -0.021795 0.071681
0.044741 0.207271 -0.102320
0.081628 0.211233 0.124250
0.126461 0.096456 -0.076604
0.481535 -0.052170 0.158487
0.127336 0.112203 -0.107975
0.367988 0.249521 -0.044710
0.554270 0.027324 -0.125531
0.460942 0.046457 -0.110822
0.056536 0.120531 0.126606
0.612525 0.086538 0.156306
0.353685 0.367468 -0.127356
0.242513 0.344460 0.159567
0.282994 -0.154205 -0.073194
0.483106 -0.042505 -0.145168
0.569587 0.165944 -0.029807
0.187892 0.176191 0.126129
0.247007 0.121340 0.046330
0.579388 0.149506 0.091572
0.427303 0.079426 -0.059126
0.095992 0.210897 -0.125069
0.003791 0.097209 0.110982
0.311064 0.181557 0.020523
0.101855 0.285156 0.107617
0.217168 0.160092 -0.091951
0.185074 0.267154 -0.155733
0.270105 -0.165261 0.022639
0.604194 -0.107221 0.007280
0.557349 -0.123104 -0.073100
0.624864 -0.098989 0.091951
0.548279 0.074401 -0.121939
0.900487 0.199924 -0.139762
0.657404 0.012327 -0.143175
0.509759 0.145322 0.033762
0.541440 -0.115798 0.082368
0.504510 0.101422 0.122451
0.443858 0.040698 0.142727
0.075826 0.040568 -0.062872
0.684305 -0.100945 -0.056633
0.455138 0.144817 0.069439
0.140238 0.100758 0.091019
0.561624 -0.025827 0.160448
0.451538 -0.027102 -0.142959
0.560583 -0.131969 -0.008496
0.444622 0.126602 -0.018437
-0.034550 0.167689 0.022447
0.030147 0.115429 -0.108962
-0.115952 0.080790 -0.089394
0.037550 0.251824 0.004568
0.535836 0.000863 -0.155554
0.859808 -0.021704 0.026402
0.793459 0.456520 0.032785
0.035522 0.172025 0.126270
0.393883 0.103165 0.036318
0.453107 0.017354 -0.140293
0.504900 -0.082025 -0.126017
0.509495 -0.010801 0.158313
0.544607 0.127371 -0.050672
0.038145 -0.000508 0.064500
0.424234 -0.027113 0.159098
0.019436 0.177453 -0.057997
0.576527 -0.057286 -0.122502
0.146013 0.412421 0.062197
-0.149444 0.123814 0.064844
0.101593 0.292190 -0.061661
0.018403 0.027036 -0.087051
0.652059 0.023260 0.158970
0.602615 -0.042932 0.140610
0.131376 0.183719 0.140328
0.254802 0.212285 0.127159
0.413093 0.357370 0.099719
0.438775 0.074217 -0.091518
0.072336 0.160914 -0.123060
-0.006270 -0.040533 -0.001751
0.475792 -0.142771 0.055387
0.652806 0.103475 -0.109146
0.522555 -0.104985 0.122809
0.257916 0.209045 -0.108199
0.514579 -0.144398 0.047374
0.193378 0.091320 -0.039739
0.460918 0.124638 0.029180
0.437985 -0.164129 -0.011557
0.561990 0.084550 0.127546
-0.001976 0.213704 0.002279
0.130015 0.073732 -0.057743
0.473930 0.026828 0.157926
0.389293 0.012074 -0.107801
0.442415 -0.137287 -0.076062
-0.022726 0.135360 -0.042765
0.174985 0.129917 0.107097
0.374454 0.064280 -0.035555
0.519288 -0.042953 -0.126526
0.625598 -0.060701 -0.105467
0.491947 -0.110391 -0.110094
0.173194 0.179868 -0.123004
0.080651 0.312830 0.024772
0.478143 -0.083514 0.127060
0.522395 -0.129631 -0.041604
0.451827 0.104323 0.096375
0.363102 -0.050276 0.142420
0.574489 0.165290 0.022015
0.288491 0.188540 -0.063929
0.383036 -0.005186 0.143487
0.089025 0.083690 0.098150
0.118984 -0.109036 -0.057965
0.505367 0.031351 -0.126171
0.019852 0.236509 0.075988
0.375732 0.036725 -0.101587
0.374817 0.023721 0.128170
0.224496 0.125196 0.080332
0.330736 0.001891 -0.074285
0.408191 -0.085203 0.124952
0.456302 -0.019799 0.159082
0.165197 0.102938 -0.067507
0.253315 0.126343 0.004726
0.457214 0.106367 -0.059667
0.286303 -0.163742 0.052252
0.575706 -0.084592 0.117355
0.491053 0.081734 -0.099639
0.216103 0.004492 0.093805
0.415319 0.125151 0.059363
0.191812 0.416656 -0.082547
0.440437 -0.141017 0.091193
0.981051 0.143488 0.045551
0.440008 -0.144452 -0.047947
0.667171 -0.083826 0.033436
0.692172 0.159281 0.126310
0.467568 0.063751 0.129691
0.538091 -0.092841 -0.107839
0.178608 0.262161 0.156178
0.040688 0.047177 0.105747
0.497452 0.126205 -0.018530
0.809403 -0.019463 -0.103521
-0.418209 -0.461372 0.135957
0.514805 -0.144166 0.001641
0.490765 -0.009979 -0.159976
0.336735 -0.082468 -0.119735
-0.008815 0.149818 0.106883
0.102637 0.073579 -0.091137
0.418260 -0.053721 -0.140272
0.443285 -0.133999 0.058995
0.409827 0.122912 0.011386
0.383620 -0.070962 0.139399
0.398123 0.060867 -0.072220
0.298213 0.063727 0.004504
0.300313 0.061737 0.048897
0.528046 -0.061817 0.144597
0.377101 -0.146464 0.048374
0.139232 0.053918 0.075443
0.447899 -0.110965 -0.092177
0.361173 -0.144815 0.102670
0.411191 -0.166984 0.030197
0.555260 0.031578 0.158956
0.430668 -0.118138 0.123770
0.332134 -0.168095 -0.057380
0.345103 -0.169677 -0.025121
0.371027 0.057419 0.091110
0.373272 0.085286 0.007426
0.572250 -0.133225 0.041882
0.210860 0.123461 -0.044481
0.416042 0.059797 0.123956
0.401029 -0.005840 -0.140589
0.481951 -0.166085 -0.028120
0.358913 -0.144100 -0.089859
0.120889 0.126963 0.130622
0.328068 0.063180 0.068249
0.478965 -0.140510 -0.073888
0.409801 -0.097083 -0.123535
0.313925 -0.043164 0.139092
0.335240 -0.036231 -0.107342
0.352465 -0.000367 -0.108140
0.586991 0.014737 -0.155308
0.357472 -0.146192 -0.058253
0.180209 0.050881 0.059715
0.306418 -0.096635 0.137873
-0.606220 -0.652390 -0.132947
0.377496 -0.104246 0.106665
0.206582 -0.165330 -0.064455
0.273158 -0.001101 -0.069386
0.352644 0.033301 -0.065818
0.260574 0.053320 0.075219
0.660011 0.166880 -0.046202
0.390080 -0.033123 0.156448
0.061230 -0.065598 -0.002151
0.171137 0.062300 -0.034063
0.291306 0.020962 0.101362
0.347318 -0.021082 0.132976
0.481489 -0.128126 0.091550
0.326288 0.062177 -0.022746
0.244210 0.042604 -0.007960
0.467229 -0.145391 0.020224
0.273006 0.150947 0.058077
0.329570 0.020994 0.098195
0.465679 -0.070217 -0.123732
0.315819 -0.056947 -0.126259
0.261297 -0.042227 0.126131
0.258463 0.018318 0.092458
0.500604 0.146392 0.085688
0.287701 -0.064216 0.127095
0.357712 -0.112417 -0.109960
0.061401 0.246249 -0.064340
0.341271 -0.167121 0.066672
0.431431 -0.067703 0.157064
0.299613 -0.167980 -0.042891
0.393248 -0.147681 -0.025068
0.301650 0.019599 -0.055264
0.077081 0.019257 -0.014613
0.160724 0.016076 -0.010132
0.317249 0.085299 0.026541
0.416213 0.034932 -0.109501
0.321191 -0.126637 0.109090
0.302746 -0.021899 -0.089730
0.337119 -0.071944 0.127863
0.207137 0.031594 -0.022653
0.117823 0.009144 0.008713
0.227468 0.093612 0.040668
0.402766 -0.144751 -0.086235
0.310928 -0.098847 -0.107364
0.360108 -0.145084 0.016563
0.363241 0.101318 0.059497
0.229451 -0.100184 -0.105301
0.237142 -0.018158 0.124090
0.209613 -0.042740 -0.073562
0.081999 0.039807 0.061487
0.184679 -0.063357 -0.073722
0.119886 0.005896 0.059649
0.266858 0.060467 0.031630
0.189739 -0.080400 0.108458
0.231943 -0.119368 0.107116
0.056803 -0.381234 -0.058864
0.774980 -0.019545 0.121547
0.187049 0.086546 0.075318
0.320913 -0.145364 -0.084687
0.289436 -0.012954 0.124512
0.268462 -0.069566 -0.107017
0.309031 -0.169071 0.011680
0.249457 0.011780 -0.040657
0.603594 -0.120844 -0.044630
0.139526 -0.035930 0.077397
0.221835 0.051306 0.074883
0.417633 0.011524 0.155976
0.245414 -0.029803 -0.074024
0.265115 -0.143451 0.087267
0.281665 0.041384 -0.013986
0.186923 -0.167230 0.058843
0.119048 0.042145 -0.031584
0.230692 -0.074137 0.123092
0.266436 -0.125463 -0.090480
0.167982 -0.157805 -0.093645
0.214854 -0.200426 0.008723
0.221187 0.079154 -0.007805
0.177261 -0.185752 -0.076249
0.272809 -0.108803 0.124730
0.186779 -0.094941 -0.107721
0.404085 0.103333 -0.039544
0.147168 -0.117657 0.110822
0.187417 -0.036367 0.108100
0.153669 -0.061713 -0.046125
0.082375 0.002238 0.029321
0.247298 -0.167902 -0.062579
0.154936 -0.130506 -0.106614
0.219137 -0.063794 -0.095220
0.174195 -0.148801 0.093069
0.231703 -0.167774 0.041634
0.289876 0.045977 0.076132
0.056840 -0.083215 0.073479
0.110832 -0.157092 0.109683
0.142995 -0.251039 0.005620
0.018080 -0.082962 0.068991
0.133468 -0.023679 -0.026858
0.365077 -0.055826 -0.125477
0.147216 -0.208218 0.062333
0.103491 -0.036418 0.046242
0.149274 -0.081924 0.107436
0.208325 -0.157052 0.091484
0.098242 -0.162477 -0.094299
0.163630 -0.234708 0.024299
0.081852 -0.122706 -0.054088
0.144633 -0.150293 0.106091
0.093075 -0.291026 -0.089536
0.205830 -0.188343 -0.034130
0.256851 -0.188079 -0.007627
0.137009 -0.084902 -0.086371
0.145226 -0.227658 0.092258
0.095184 -0.036423 0.009070
-0.066788 -0.227239 -0.050314
0.164415 -0.209179 -0.041057
0.194753 -0.022950 -0.041639
0.090986 -0.067252 0.090648
0.080384 -0.159881 0.110216
0.184111 -0.120772 0.124864
0.032600 -0.164743 -0.078157
-0.043810 -0.127413 0.021804
0.109313 -0.130087 -0.089360
0.132550 -0.169778 -0.093320
0.152844 -0.250959 -0.037007
0.182875 -0.208143 0.043873
0.023068 -0.085449 0.016158
-0.002067 -0.150221 -0.046442
0.048960 -0.103242 -0.023629
-0.047882 -0.125578 0.060673
0.081435 -0.239178 0.124429
0.017021 -0.207033 0.123871
0.184805 -0.230369 -0.005412
0.173239 0.012204 0.074283
0.113263 -0.197696 0.109747
0.122776 -0.309225 -0.008400
0.054254 -0.116094 0.091582
-0.033141 -0.187721 -0.054787
0.131779 -0.221579 -0.074149
0.032210 -0.145188 -0.050885
0.061427 -0.326597 0.099257
0.063762 -0.151024 -0.091959
-0.004089 -0.122856 0.040537
0.169656 -0.189280 0.090929
0.105508 -0.291491 0.098222
0.031959 -0.332727 -0.126161
-0.027564 -0.164722 -0.037407
-0.052589 -0.166176 0.081773
0.101623 -0.309257 -0.032582
0.074639 -0.373981 0.002145
-0.002742 -0.249521 -0.131981
0.122026 -0.291467 0.020836
-0.044050 -0.218118 0.123900
0.103413 -0.286645 0.063387
0.060210 -0.268982 -0.124704
0.036397 -0.188028 -0.098128
0.023708 -0.296283 0.143404
-0.074292 -0.270687 -0.125293
-0.334504 -0.726993 0.060681
-0.003823 -0.211618 -0.108340
0.030147 -0.167110 0.109371
0.060483 -0.058937 0.044542
0.103069 -0.322202 0.045468
0.060008 -0.201720 0.124012
0.083672 -0.255888 -0.096370
0.055538 -0.358456 0.090971
0.398772 -0.146592 0.082547
0.038137 -0.419863 0.006727
-0.041875 -0.211372 -0.073914
0.021307 -0.437563 -0.007923
-0.272702 -0.647410 -0.094667
-0.131750 -0.581776 0.035971
0.100929 -0.072918 -0.039656
-0.093695 -0.188170 0.039288
-0.126696 -0.218094 0.000726
-0.055434 -0.155195 -0.007250
0.069350 -0.291192 0.116031
0.091928 -0.320449 -0.074811
0.087303 -0.196698 -0.107188
-0.065670 -0.166726 0.038768
-0.002144 -0.353845 0.128026
0.028314 -0.396055 -0.075270
-0.124932 -0.209878 0.074651
-0.062948 -0.190643 -0.039998
-0.645647 -0.917613 -0.041121
-0.063631 -0.209026 0.100898
0.105737 -0.253710 0.090913
0.025299 -0.286447 -0.141502
-0.015788 -0.230105 0.133077
-0.042259 -0.242716 -0.113771
0.068891 -0.353781 0.045111
0.020703 -0.422881 0.080369
-0.188071 -0.536722 0.156312
-0.006430 -0.132932 0.089063
0.076702 -0.354144 -0.039491
-0.022422 -0.364354 -0.137139
-0.052226 -0.350344 0.156472
-0.112996 -0.319974 -0.126139
-0.044872 -0.323067 -0.142486
-0.294685 -0.604864 -0.155188
-0.000954 -0.178307 -0.067627
-0.125319 -0.270044 -0.060919
0.122410 -0.279093 -0.019293
0.033774 -0.338194 0.126508
-0.021349 -0.186352 0.116410
0.064005 -0.301714 -0.106827
-0.105535 -0.267768 0.114977
-0.016042 -0.274105 0.155610
-0.122917 -0.206913 0.040612
-0.089249 -0.352063 -0.160088
-0.190347 -0.249753 0.042472
-0.033760 -0.286559 -0.141779
-0.041987 -0.421318 -0.104140
0.046150 -0.395623 0.021994
0.001053 -0.366181 -0.108429
-0.096093 -0.186854 0.002743
-0.117287 -0.349114 -0.139834
-0.244269 -0.355681 -0.106134
-0.041776 -0.464761 -0.044881
-0.083189 -0.416933 0.149371
-0.063346 -0.435375 -0.130113
-0.025632 -0.372850 0.142212
-0.105863 -0.236859 0.089824
0.042166 -0.397101 0.066493
0.144943 -0.249470 0.052916
-0.059396 -0.307542 0.157184
-0.732025 -0.814394 0.117421
-0.051789 -0.355492 -0.156178
-0.114223 -0.287461 -0.110030
-0.160324 -0.292825 -0.090016
-0.041283 -0.464110 0.072887
-0.770081 -0.809702 0.066661
-0.150226 -0.428830 -0.159629
0.040893 -0.397720 -0.024179
-0.007692 -0.125516 -0.014866
-0.145834 -0.251583 -0.019371
-0.126362 -0.411887 -0.144885
-0.097132 -0.397872 0.175896
-0.090196 -0.448107 0.124920
0.121337 -0.280678 -0.066573
-0.157501 -0.228362 0.073205
-0.108497 -0.293615 0.143500
-0.008821 -0.416426 -0.099305
-0.142442 -0.366208 0.156944
0.010958 -0.390769 0.109672
0.034059 -0.247132 0.142518
-0.239682 -0.333925 -0.042162
-0.175267 -0.375988 -0.149262
-0.022918 -0.459365 -0.000939
-0.085809 -0.241478 -0.086341
-0.245366 -0.273529 -0.006148
-0.230537 -0.292310 0.083991
-0.065451 -0.496761 -0.066931
-0.168804 -0.290373 -0.042597
-0.024391 -0.471493 0.049033
-0.010595 -0.332164 -0.143778
-0.161930 -0.228936 0.020128
-0.083269 -0.521808 0.001292
-0.139144 -0.327198 -0.110913
-0.145623 -0.276897 0.107230
-0.058316 -0.457513 0.096578
-0.689615 -0.894576 0.013615
-0.063727 -0.386900 0.159973
-0.724927 -0.896551 -0.052206
-0.752002 -0.837839 -0.084063
-0.100758 -0.521439 0.080919
-0.126319 -0.478271 -0.126161
-0.093204 -0.389734 -0.141403
-0.770121 -0.859531 0.003322
-0.668022 -0.722787 -0.134358
-0.719975 -0.873607 0.074832
0.110405 -0.120665 0.108954
-0.157426 -0.461932 0.159383
-0.682787 -0.787066 -0.175141
-0.154739 -0.332500 0.140530
-0.133121 -0.390777 0.176488
-0.051941 -0.501762 0.023472
-0.757776 -0.708372 0.075313
-0.669260 -0.875363 0.104850
0.102877 -0.335723 0.004627
-0.215580 -0.458733 -0.159431
-0.162184 -0.355110 -0.134476
-0.203025 -0.417699 0.174815
-0.092280 -0.478295 -0.107551
-0.001736 -0.434497 -0.049842
-0.624336 -0.895513 -0.061749
-0.752047 -0.755252 -0.058835
-0.681455 -0.875435 -0.108266
-0.725346 -0.741362 0.108856
-0.230785 -0.272720 0.041794
-0.709784 -0.804576 -0.145414
-0.105647 -0.221456 -0.040313
-0.183617 -0.404202 -0.158689
-0.113903 -0.561624 0.039686
-0.216127 -0.341968 -0.109867
-0.701373 -0.876022 0.037052
-0.018390 -0.435858 0.080743
-0.241806 -0.333477 0.098641
-0.130680 -0.542435 -0.091035
-0.731196 -0.748824 -0.080927
-0.009440 -0.330250 0.158100
-0.041040 -0.392231 -0.124151
-0.773531 -0.829326 0.039315
-0.675115 -0.914085 -0.013081
-0.199732 -0.484657 -0.159994
-0.644123 -0.875569 0.084786
-0.634981 -0.833815 -0.155479
-0.190846 -0.312556 -0.069167
-0.717386 -0.772432 0.157398
-0.625676 -0.606148 -0.030589
-0.064576 -0.254874 0.127017
-0.759295 -0.792894 0.091993
-0.733795 -0.822306 -0.109659
-0.616176 -0.894357 0.027592
-0.084261 -0.496121 0.113867
-0.687985 -0.744394 -0.112303
-0.718112 -0.706197 -0.044046
-0.565194 -0.799247 -0.164328
-0.618871 -0.833665 0.127642
-0.578147 -0.846792 -0.125587
-0.437611 -0.429702 0.020096
-0.753688 -0.854466 -0.045791
-0.267610 -0.354349 -0.062056
-0.268061 -0.411623 0.159533
-0.731321 -0.697578 0.008710
-0.757291 -0.728498 0.052209
0.042193 -0.233990 -0.122868
-0.758668 -0.770334 0.001839
-0.152134 -0.478968 -0.156309
-0.122117 -0.431626 0.156029
-0.272881 -0.452688 -0.160782
-0.251519 -0.389960 -0.126681
-0.671747 -0.834191 0.137990
-0.193261 -0.270359 0.077701
-0.658319 -0.856110 -0.134102
-0.096544 -0.520460 -0.036158
-0.601152 -0.793846 -0.176854
-0.571647 -0.876246 0.067006
-0.523163 -0.835992 0.062216
-0.270143 -0.294204 0.021657
-0.150875 -0.510637 0.124970
-0.179022 -0.376661 0.172291
-0.596341 -0.726782 -0.189719
-0.664721 -0.792872 0.163922
-0.137250 -0.582347 -0.028104
-0.666157 -0.704150 -0.159116
-0.577787 -0.895742 -0.012040
-0.305836 -0.333015 -0.004011
-0.685562 -0.683520 -0.076017
-0.512772 -0.854298 0.005454
-0.770046 -0.760522 -0.031248
-0.293617 -0.335142 0.060126
-0.222145 -0.298253 -0.041799
-0.185432 -0.333826 -0.102665
-0.551193 -0.829532 0.155970
-0.232178 -0.425040 -0.156784
-0.538742 -0.857252 -0.044553
-0.143379 -0.385333 -0.157643
-0.685647 -0.766959 0.174081
-0.288595 -0.372548 -0.109186
0.019044 -0.436637 0.038626
-0.515219 -0.843605 -0.058016
-0.519739 -0.834180 -0.119361
-0.236891 -0.598003 0.125317
-0.164431 -0.424477 0.175955
-0.655109 -0.896436 0.037220
-0.597659 -0.865025 -0.091153
-0.188154 -0.616830 -0.025468
-0.126530 -0.558027 -0.057204
-0.213944 -0.348826 0.139871
-0.732194 -0.695278 -0.021273
-0.668441 -0.644761 0.102982
-0.564346 -0.523155 0.062904
-0.036365 -0.457940 -0.092668
-0.636811 -0.797742 -0.177222
-0.486909 -0.782217 -0.159178
-0.562889 -0.835368 0.126630
-0.090097 -0.535764 0.042229
-0.197664 -0.307595 0.109269
-0.246076 -0.625644 -0.105595
-0.521196 -0.747401 -0.191667
-0.621870 -0.810447 0.175541
-0.696025 -0.841503 -0.123471
-0.128041 -0.521826 -0.125760
-0.731249 -0.703988 0.102339
-0.773934 -0.774046 0.042875
-0.161720 -0.576165 0.091049
-0.220207 -0.515214 -0.159167
-0.203591 -0.546117 -0.110598
-0.256469 -0.541480 0.161494
-0.175857 -0.598948 -0.090430
-0.239140 -0.435434 0.173468
-0.192666 -0.271418 0.001574
-0.730040 -0.771839 0.123124
-0.710184 -0.646634 0.040961
0.206438 -0.145757 -0.097664
-0.624213 -0.724516 0.191461
-0.706034 -0.709295 -0.074654
-0.163462 -0.585235 0.002036
-0.127413 -0.519982 0.108570
-0.641871 -0.813041 0.144715
-0.677607 -0.895513 -0.063654
-0.579335 -0.894203 0.025369
-0.342189 -0.486223 -0.160176
-0.282551 -0.486949 -0.157531
-0.574940 -0.787869 -0.192379
-0.732215 -0.692484 0.046952
-0.480459 -0.715940 -0.175650
-0.345744 -0.545330 -0.191539
-0.745643 -0.869068 0.041671
-0.354987 -0.363601 0.036217
-0.548887 -0.703075 -0.175984
-0.047031 -0.415468 0.121979
-0.230708 -0.646434 0.023050
-0.540340 -0.854554 0.092079
-0.701778 -0.855478 0.118331
-0.290191 -0.343051 0.090590
-0.177231 -0.499334 0.142689
-0.289142 -0.417913 -0.137662
-0.749101 -0.795234 -0.066768
-0.687950 -0.654570 -0.016062
-0.584122 -0.649092 -0.156912
-0.689546 -0.683672 -0.038189
-0.245571 -0.475445 0.173249
-0.504129 -0.674824 -0.192318
-0.352327 -0.373861 0.085624
-0.625427 -0.716135 -0.172622
-0.520812 -0.791196 0.157566
-0.708313 -0.735711 0.140504
-0.749637 -0.730315 0.006370
-0.209950 -0.608104 0.069167
-0.542056 -0.715545 0.193318
-0.292142 -0.333527 0.027408
-0.707790 -0.759879 -0.153617
-0.308353 -0.492919 0.175039
-0.597224 -0.792133 0.168296
-0.393109 -0.409686 -0.042573
-0.646567 -0.652577 0.127957
-0.307099 -0.354915 -0.028201
-0.381080 -0.548973 -0.173147
-0.317671 -0.511096 -0.172221
-0.341204 -0.421078 0.125352
-0.291627 -0.698579 -0.007611
-0.229125 -0.393339 0.159554
-0.667859 -0.655928 -0.075620
-0.365498 -0.458631 -0.157016
-0.551201 -0.814079 -0.133032
-0.559156 -0.738953 -0.192163
-0.080552 -0.315977 -0.142380
-0.579217 -0.875152 -0.045514
-0.501858 -0.876372 -0.032113
-0.498730 -0.831560 -0.089023
-0.189189 -0.446780 -0.159135
-0.429483 -0.792176 0.044649
-0.219983 -0.559671 0.142182
-0.273999 -0.688700 -0.064569
-0.519499 -0.631029 -0.176424
-0.475331 -0.611130 -0.175578
-0.331726 -0.697706 -0.092591
-0.126680 -0.484945 0.140301
-0.460232 -0.812411 0.083062
0.101225 -0.332388 0.091110
-0.726630 -0.893853 -0.004275
-0.223119 -0.333925 -0.075660
-0.616021 -0.856075 -0.131492
-0.480056 -0.731131 0.174548
-0.271768 -0.683883 0.048105
-0.333290 -0.439229 0.156509
-0.549317 -0.602801 -0.120816
-0.314843 -0.407708 -0.101144
-0.659659 -0.728428 0.159549
-0.429526 -0.598801 -0.174012
-0.375545 -0.481311 0.160419
-0.630866 -0.604394 0.073984
-0.266255 -0.648587 0.084650
-0.055071 -0.499606 -0.021855
-0.166995 -0.555636 -0.094200
-0.396501 -0.437526 -0.072759
-0.686541 -0.630570 0.007821
-0.451336 -0.816963 0.008542
-0.422481 -0.789561 -0.049535
-0.429176 -0.769192 -0.103839
-0.375764 -0.747991 -0.100442
-0.357351 -0.687312 -0.141243
-0.208124 -0.618126 -0.068142
-0.328809 -0.650453 -0.144218
-0.474698 -0.689028 -0.189657
-0.397131 -0.664278 -0.175949
