552
-0.0179111 0.163283 -0.0161566
0.0388391 0.10572 0.0243318
0.00749966 0.131422 0.0129806
0.00859323 0.12149 0.035398
-0.0800093 0.134505 0.0508039
0.0229854 0.124587 0.0217667
-0.0520673 0.147639 0.0176308
0.0401602 0.0943024 0.0303144
-0.0561486 0.155898 0.0117945
-0.022211 0.158708 -0.00422878
0.0341097 0.0923609 -0.0158269
-0.0723799 0.155662 0.00203079
-0.0464158 0.167223 0.00210227
-0.0164346 0.120502 0.0342171
-0.0790841 0.145774 0.0419073
-0.0850093 0.109974 0.00534674
0.00156374 0.0356716 0.0459054
0.0371551 0.103367 -0.00713634
-0.0243088 0.180808 -0.010039
-0.0690065 0.122256 0.0526524
-0.0672156 0.150923 0.0370441
-0.0610531 0.138012 0.0351438
-0.0655841 0.154146 0.00163833
-0.0277108 0.180824 -0.00831509
-0.0571607 0.0373701 0.0461979
-0.0916021 0.132304 0.012379
-0.00989431 0.127907 0.0258562
-0.0894748 0.0906238 0.0150432
-0.0763432 0.155821 -0.00495865
-0.0720176 0.117228 0.0523585
-0.0755212 0.132275 0.0519361
-0.0643039 0.145971 0.0391001
0.0445213 0.0954261 0.00751231
0.032299 0.117252 0.0141867
-0.0760729 0.0953695 -0.0127534
-0.00985365 0.130023 0.0158245
-0.0287387 0.125183 0.00372809
-0.0471952 0.132031 0.0225571
-0.0509103 0.04314 0.0447713
-0.0770779 0.152711 0.0324964
0.0292214 0.113711 0.0319098
0.0159514 0.0429945 0.0441432
-0.0651172 0.155762 0.0248411
-0.0812321 0.132341 -0.00404225
0.0413828 0.101311 0.0004586
-0.0388667 0.0430993 0.0414884
-0.0681246 0.160535 -0.0109229
-0.0268045 0.0376392 0.0552199
-0.0561932 0.123826 0.0391379
-0.0455094 0.0934947 -0.0219154
0.0415526 0.102977 0.0145815
-0.0602205 0.155185 0.00234863
-0.0564563 0.045961 0.0425492
-0.0629791 0.0835079 -0.0192179
-0.0445675 0.0497407 0.0392592
0.0291634 0.111863 -0.00943828
-0.0217309 0.0460829 0.0519675
0.00781561 0.0466167 0.048209
-0.0341522 0.0490723 0.0394323
-0.0136203 0.0482943 0.0481613
-0.0234497 0.184182 -0.0153661
-0.0503725 0.04974 0.0370536
0.0101336 0.0540651 0.0520094
-0.079668 0.128223 0.0526537
0.0333311 0.0483654 0.0314754
0.0423402 0.0505871 0.0321654
-0.0593528 0.0472727 0.0373352
-0.0380448 0.0562087 0.0396858
-0.00926966 0.098306 0.0510293
-0.0129416 0.100979 0.0440812
-0.0202817 0.0505823 0.0460605
-0.0610978 0.138431 -0.0064643
-0.0534177 0.139826 0.0285038
-0.0272681 0.0505452 0.0432878
-0.000786743 0.0533739 0.0546008
-0.00444302 0.123569 0.0343687
-0.0282614 0.118498 0.0308978
0.0298768 0.118089 0.024756
-0.0277973 0.0567987 0.0359968
-0.00766998 0.0607579 0.0553266
0.00279152 0.0610398 0.0558668
-0.0621805 0.147822 -0.00572825
-0.0782703 0.169805 -0.0358591
-0.0363634 0.171576 5.67843e-05
0.0398013 0.0594487 0.0309209
-0.0419042 0.0681481 0.0416759
-0.00857416 0.129723 0.00519431
0.0109405 0.0636377 0.0534519
0.0411565 0.0889144 -0.00937979
0.00296369 0.130115 0.0236198
-0.0582954 0.149561 -0.000546823
-0.0762321 0.155206 0.0255289
0.020414 0.118339 -0.00973567
0.014692 0.126454 0.0275664
0.00729464 0.130597 0.00387843
-0.0155808 0.062752 0.053113
-0.0778255 0.0692987 0.0101364
-0.00186391 0.116589 0.0399253
-0.0752974 0.15587 0.0169119
-0.0642546 0.142246 -0.00793858
0.0505919 0.059114 0.0299727
-0.0627873 0.159916 -0.044571
-0.0574238 0.0593117 0.021376
-0.0273784 0.125205 0.0169704
0.0349419 0.100534 0.0343808
-0.0543553 0.0578447 0.0196951
-0.0887727 0.100229 0.0186601
-0.0367581 0.163724 -0.0135499
-0.0511499 0.0591845 0.0313038
-0.0105247 0.0698735 0.055602
-0.00120539 0.070394 0.0569335
-0.0776893 0.176607 -0.0491194
-0.0451345 0.122531 0.0257977
0.0206663 0.109221 0.0390164
-0.043008 0.129251 0.0133703
-0.0909591 0.136564 0.0188072
-0.0889523 0.099118 0.0106033
-0.0870407 0.124096 -0.000996192
0.0127593 0.105232 -0.0196233
0.0436477 0.0933875 0.0231405
-0.0640237 0.0358702 0.0411553
-0.0315705 0.0831121 0.0419606
0.00882832 0.0768118 0.0556263
0.0132625 0.109578 0.0401611
-0.052702 0.115386 0.0338153
-0.0380073 0.122236 0.0275721
-0.0893978 0.137373 0.0264653
-0.0849801 0.12006 -0.00246173
-0.00797824 0.0824152 0.057526
0.033515 0.115133 0.00192008
-0.00920516 0.174515 -0.0278061
-0.0557773 0.0928932 -0.0215802
-0.0186272 0.0815242 0.0569527
0.0141504 0.0916458 0.0516583
-0.0540723 0.0802374 0.0444645
0.00546966 0.0861883 0.0564344
-0.0617369 0.159709 -0.0312106
-0.0899194 0.115716 0.0279768
-0.0368202 0.088773 0.0437962
-0.0700271 0.0904322 0.0423703
-0.0478003 0.136353 0.012424
-0.0441562 0.0816574 0.042681
-0.0921308 0.120144 0.00875087
-0.0645361 0.0815472 0.0432738
-0.0557784 0.0881496 0.0449777
-0.0778383 0.110287 0.04387
-0.0873292 0.0962683 0.00391217
-0.0123482 0.0922957 0.0559896
0.0199616 0.0926027 0.0481075
-0.0498124 0.109907 0.0377894
-0.0929165 0.124462 0.0278346
-0.0483498 0.093771 0.0443827
-0.0642918 0.0991468 0.0424431
-0.0258688 0.0946286 0.0448977
-0.011125 0.179306 -0.0289349
0.000501834 0.0939399 0.0549771
-0.0557321 0.0981718 0.0433987
-0.0400203 0.100565 0.0411148
-0.0174326 0.0932982 0.0537715
0.00670511 0.0987308 0.0491616
-0.0895744 0.13319 0.00541436
-0.0755231 0.106838 0.0357305
-0.0626898 0.167634 -0.0452547
-0.0292628 0.0981043 0.0442815
-0.0437138 0.105478 0.0407519
-0.0363942 0.110449 0.036543
0.00345098 0.103816 0.043684
0.0151127 0.101698 0.0466645
-0.0649524 0.111022 0.0380283
-0.0266353 0.109225 0.0391027
-0.0508896 0.137458 0.00156349
-0.0141082 0.108107 0.0424758
-0.0908095 0.146868 0.0241466
-0.0231206 0.179462 -0.0208609
-0.0100253 0.106626 -0.0227158
-0.0684965 0.113327 0.0473565
-0.0777457 0.158309 -0.0201212
0.0168314 0.037427 0.0429132
-0.0592548 0.12147 -0.00906787
-0.0503462 0.125897 0.0327852
-0.0654773 0.101212 -0.0164646
-0.0517077 0.0381343 0.0464924
-0.010239 0.0423839 0.0498125
0.0263812 0.0409123 0.032963
-0.0769396 0.125775 -0.00728944
-0.0669868 0.117224 -0.00920335
0.0443852 0.0879748 -0.00166723
-0.0592316 0.150752 0.0341924
-0.0128823 0.176612 -0.0217365
-0.0191529 0.179858 -0.0169699
0.0267547 0.0466671 0.0378872
0.0474566 0.0739335 0.015955
-0.0917969 0.114334 0.0164482
-0.0401369 0.160687 0.00227046
-0.0163201 0.185916 -0.0218867
-0.0925999 0.117989 0.0378398
0.0190644 0.0484792 0.0422498
0.027294 0.104888 0.0389536
-0.0613005 0.125178 0.0423247
0.0482385 0.0462997 0.0245265
-0.0361694 0.151514 4.50329e-06
-0.015703 0.160785 -0.0110832
-0.0332599 0.158699 0.00254807
0.0201595 0.0543349 0.0458638
-0.0681802 0.130245 0.0484408
-0.0654016 0.119148 0.0496649
0.0534933 0.054372 0.0270714
0.0566341 0.0522993 0.0208628
-0.0491269 0.150476 0.0110637
-0.0315559 0.163014 -0.00356061
-0.088469 0.0939447 0.0224067
-0.0432375 0.169782 -0.00745819
-0.0128927 0.164744 -0.0136223
-0.0780554 0.0695691 0.0170902
-0.022267 0.171875 -0.0207605
0.0202622 0.0610178 0.0479322
-0.0863481 0.113587 0.0448976
0.034839 0.0639431 0.0386171
0.055823 0.0636424 0.0259048
0.0602714 0.063042 0.0169195
0.0349791 0.0741923 0.0389289
-0.0609434 0.118287 0.0409881
-0.0718669 0.141814 0.0459568
0.0201637 0.0705877 0.0497033
0.0402952 0.0806467 0.032678
-0.0942411 0.122107 0.0202208
0.0576875 0.0695643 0.0201369
0.026337 0.0787117 0.0469225
0.0443317 0.0690737 0.025233
0.0200881 0.0813196 0.0512172
0.0339198 0.088957 0.040617
-0.0779308 0.112322 -0.00384182
0.0274492 0.0925947 0.0445601
-0.0909637 0.151361 0.0153548
-0.0855604 0.142782 0.00633241
-0.0662745 0.173042 -0.0450632
-0.0190368 0.114839 -0.0168207
-0.063716 0.160322 -0.0557091
-0.0584946 0.0587716 0.0219873
-0.0107363 0.168201 -0.0228895
0.0155345 0.0347111 -0.0189849
0.0167291 0.0355355 0.0402572
-0.0744002 0.150032 -0.0300237
0.0403518 0.0389757 0.00711711
0.0226521 0.0449346 -0.0174679
-0.014228 0.0957947 -0.0318912
-0.0655255 0.179719 -0.0570197
0.0508047 0.04693 0.00264751
-0.0642161 0.177908 -0.0603655
-0.0748441 0.070517 0.0272007
0.0479622 0.0429663 0.0131073
0.056741 0.0508036 0.0149802
-0.00432628 0.124421 -0.00924121
-0.0831299 0.110242 0.0366041
0.0560809 0.0509796 0.00650758
0.0453252 0.0493701 -0.0046808
0.0163844 0.0471215 -0.0243464
0.0188046 0.101064 -0.0217234
-0.0631984 0.161519 -0.0227881
0.0530047 0.0534146 -0.00160465
0.0344066 0.0572668 -0.0117244
0.0190786 0.125953 0.000996949
-0.0731175 0.141765 -0.00773186
0.0600008 0.0603526 0.00840347
0.0286327 0.104746 -0.0144343
0.0254476 0.0528355 -0.0219324
0.0251098 0.0861353 -0.0238669
0.0522015 0.0607971 -0.00298629
-0.0529386 0.109018 -0.0183232
0.00606309 0.102386 -0.0214428
-0.0317346 0.107767 -0.01962
0.0567183 0.0672227 0.00320466
0.0293002 0.0623671 -0.0201575
-0.0647713 0.0685122 0.0343743
0.058929 0.0698149 0.0109215
-0.0788137 0.148909 -0.00230235
0.038019 0.0678298 -0.0123465
-0.0861556 0.109704 0.0200921
-0.0756988 0.151953 -0.0117296
-0.0716757 0.180767 -0.0549071
-0.0591006 0.0745904 0.0414659
-0.0303082 0.121753 -0.00712282
-0.0704651 0.153785 -0.0473466
-0.0394457 0.0348916 0.0422476
0.0333537 0.0793609 -0.0186398
-0.0353482 0.0348028 -0.0302311
-0.0497059 0.142565 0.00405324
-0.0713764 0.158702 -0.0419823
0.0466852 0.0722255 0.00495163
0.0425726 0.0787947 -0.00507234
-0.0507093 0.0560533 0.0150913
-0.0663258 0.161618 -0.0569844
-0.00988994 0.0997212 -0.0242022
-0.0787182 0.168453 -0.0388387
-0.039661 0.0459385 -0.0213046
-0.0755025 0.17883 -0.0490681
0.0109108 0.129991 0.0206659
-0.0735255 0.17311 -0.0368834
-0.0421241 0.11778 -0.0140179
-0.0573485 0.153283 0.0290466
0.0544528 0.072652 0.00940384
0.0532445 0.0725825 0.0189793
0.0255943 0.12317 0.00699453
0.0174711 0.128088 0.00971884
-0.0244445 0.0816628 0.0535075
-0.066902 0.0359866 0.0316949
-0.071344 0.0344919 0.00336725
-0.0702452 0.0363313 0.0105306
-0.0627664 0.0343772 0.0204517
-0.0648983 0.0418566 0.0355073
-0.0781931 0.0863509 0.0365849
-0.0632379 0.0428804 0.0287657
-0.0856206 0.133214 0.0470485
-0.0249324 0.104951 -0.0227133
-0.067931 0.0435649 0.00758308
-0.0616066 0.0425012 0.0425388
-0.0315951 0.0431522 0.0497085
-0.0911695 0.12697 0.0412537
-0.0880615 0.122947 0.0471368
-0.082129 0.118477 0.0491638
-0.0885333 0.141237 0.0358997
-0.0909152 0.116084 0.0412494
-0.0853967 0.150626 0.0292744
-0.0507266 0.0481783 0.0170787
-0.072253 0.145155 -0.0173732
-0.0851783 0.0903435 0.0279597
-0.0533302 0.049521 0.0274825
-0.0807285 0.0976002 0.0331157
-0.0195236 0.0643854 0.050462
-0.0522057 0.056031 0.0188086
-0.0492331 0.0656457 0.0368587
-0.0716824 0.149815 -0.0397951
0.00557723 0.114271 -0.0187615
-0.0686792 0.128336 -0.00884584
-0.0385579 0.106793 -0.0202048
-0.0729314 0.0760146 0.0355413
-0.047309 0.0339677 -0.0151819
-0.0426366 0.0381465 -0.0255849
-0.0447724 0.0396539 -0.0201899
-0.0682106 0.171828 -0.0559864
-0.0657438 0.0400439 -0.00578757
-0.0682842 0.0430004 0.00139166
-0.0721117 0.0366403 0.00164147
-0.0729106 0.170104 -0.0473691
-0.0587213 0.0489202 0.00602215
-0.0578177 0.0412729 0.0197212
-0.0550689 0.0476429 -0.00552919
-0.0280866 0.0491836 -0.0241849
0.0231128 0.0951504 -0.0220582
-0.0567394 0.05798 -0.001305
-0.0610852 0.170486 -0.0606701
-0.00640256 0.11452 -0.0176825
-0.0283287 0.0618472 -0.0277919
-0.054313 0.0557782 0.0116945
-0.0557594 0.0568125 0.0111369
-0.0237901 0.0587796 -0.0313731
-0.0790044 0.152624 0.00141041
-0.0321306 0.0621782 -0.0170565
0.0117224 0.0784131 -0.0316796
-0.0368266 0.0416382 -0.0280276
-0.0744369 0.161912 -0.0338699
-0.0781949 0.0730424 -0.00240504
-0.0421316 0.125063 -0.00770628
-0.054307 0.0339734 -0.0117138
-0.0702365 0.0748082 -0.012763
-0.0833584 0.0763196 0.00504988
0.00900176 0.123887 -0.00927534
-0.0862536 0.0804019 0.013743
-0.030247 0.0759817 -0.032914
-0.0824289 0.0832322 -0.00436877
-0.0877453 0.0863837 0.00600886
-0.0758301 0.149542 -0.0155056
-0.0819186 0.0792885 0.0275189
-0.07294 0.0824069 -0.0153767
-0.0279144 0.0843757 -0.0355884
-0.0379448 0.0833604 -0.021841
-0.000528427 0.0949202 -0.0319895
-0.0339028 0.0852556 -0.0250627
-0.0856303 0.0834454 0.0210967
-0.0841718 0.093102 -0.00428282
-0.0293056 0.0940912 -0.0245389
0.0131114 0.0967973 -0.0238068
-0.0215031 0.0351087 -0.0279344
-0.0293637 0.116246 -0.0143967
0.0137768 0.0900748 -0.0291474
-0.0500137 0.120281 -0.0126652
-0.0332731 0.0513144 -0.0111698
-0.0213611 0.0915392 -0.0352222
-0.0496197 0.128918 -0.00346916
-0.0148375 0.125785 -0.00291716
-0.00401547 0.128409 -0.00266844
-0.000808356 0.0354586 -0.0238812
-0.0642897 0.0339999 -0.00793224
0.00130485 0.0422844 -0.0247296
-0.019219 0.0451014 -0.0281085
0.0219914 0.035261 -0.00106357
0.0388909 0.0405566 0.00014981
0.0259228 0.0427906 -0.00663977
0.00664587 0.0472396 -0.0269503
0.033663 0.0464233 -0.00609409
-0.00698522 0.0492164 -0.0309465
0.00840879 0.0576504 -0.030299
-0.0164288 0.0586348 -0.0350721
-0.0441477 0.0466816 -0.011092
-0.0419669 0.0603662 -0.0126195
0.0390749 0.0570722 -0.00594831
0.0204777 0.058858 -0.0268465
-0.0511663 0.0669878 -0.0126879
-0.0345696 0.0633871 -0.0139351
0.0223807 0.070097 -0.0268495
0.000929844 0.0635633 -0.033922
-0.0203812 0.0722 -0.0384762
-0.0655014 0.0627492 -0.00270031
0.00997232 0.0703749 -0.0322066
-0.00813187 0.0638859 -0.0352955
-0.00306367 0.0814298 -0.0369612
-0.0454928 0.0748364 -0.0180006
-0.0702203 0.0689237 -0.005501
-0.0158503 0.0813112 -0.039029
-0.0605846 0.0693541 -0.0138786
-0.0557821 0.0789915 -0.0202151
-0.0203802 0.0850572 -0.0382991
-0.035713 0.0758886 -0.0192628
-0.0102188 0.0869206 -0.0377065
0.00426411 0.0891259 -0.0335154
-0.0221012 0.0335638 -0.0262526
-0.0358376 0.0342589 -0.0199963
0.0062528 0.0346022 -0.0148461
0.0119906 0.0345905 -0.0094854
-0.0251082 0.035747 -0.0193767
-4.41307e-05 0.0385988 -0.01322
-0.0372634 0.0389615 -0.00721831
-0.0218197 0.0387011 -0.0149507
-0.0419042 0.034092 -0.00584214
0.00256659 0.0346221 0.00460792
0.00400192 0.0386729 -0.00637905
0.0198024 0.0348739 0.00805937
-0.0357965 0.0383267 -0.00483854
-0.029432 0.0381165 0.00387148
0.0107225 0.0350506 0.0038441
0.0183532 0.035891 0.00477679
-0.0525957 0.0333805 0.012404
-0.0409862 0.0333834 -0.00195468
-0.03967 0.036174 -0.00734
-0.0320767 0.03837 -0.00041888
-0.034102 0.0380037 -0.000731654
0.00615108 0.0349695 0.00676139
0.00858598 0.0360236 0.00671254
0.018764 0.036357 0.006112
0.0334531 0.0358293 0.0130307
-0.039967 0.034391 -0.002104
-0.036796 0.038371 -0.005075
-0.0354806 0.0382963 -0.00290932
-0.03081 0.0382705 0.00180259
-0.00460538 0.0382933 0.0167541
0.0234084 0.0386121 0.00774053
0.0226031 0.0359884 0.0127603
-0.0398989 0.0337352 0.000192287
-0.038828 0.033992 0.000319
-0.034479 0.038269 -0.002672
0.00454666 0.032942 0.0104599
-0.0386784 0.0336183 0.00249417
-0.03764 0.033672 0.002661
-0.0280481 0.0379518 0.00617453
-0.0373245 0.0334824 0.00458224
-0.0352322 0.0337249 0.00491286
-0.031799 0.038204 0.001558
0.00179347 0.0348771 0.0180289
0.02021 0.0351598 0.0168725
-0.0344561 0.0385809 0.00703158
-0.030478 0.03813 0.003707
-0.0291582 0.0380454 0.00585345
0.00665934 0.035322 0.0164174
-0.0328841 0.0296905 0.00921727
0.00836476 0.034177 0.0179171
0.0382158 0.0403637 0.0239435
-0.0467676 0.0353566 0.00840202
-0.0321714 0.0333113 0.0109357
-0.0312457 0.0353678 0.0109171
0.0100807 0.0348519 0.0186058
0.01896 0.036126 0.019186
0.0175835 0.0348197 0.0221081
-0.0491176 0.0362787 0.00851043
-0.0400303 0.0354616 0.00959938
-0.0386545 0.0342913 0.0126996
0.0105504 0.0359915 0.0208631
-0.0384023 0.0341961 0.0146368
-0.0364943 0.0346843 0.0185014
-0.0298715 0.0334895 0.0159747
-0.0288591 0.0353945 0.0173515
0.0230282 0.034945 0.0206375
-0.0541993 0.0329269 0.0161098
0.0121917 0.0351571 0.0303034
0.03409 0.0420203 0.0282213
-0.0675039 0.151495 -0.0434579
-0.0519913 0.033946 0.0247677
-0.03619 0.035599 0.019269
-0.0340179 0.0373859 0.0207578
-0.0268703 0.0386326 0.0362852
-0.0265789 0.0377749 0.0156867
-0.00964046 0.039204 0.0375027
0.00149792 0.0394081 0.0343645
0.00825939 0.037334 0.0333454
-0.00224672 0.039334 0.0354526
-0.0436861 0.0329614 0.0262992
-0.0402131 0.0333599 0.0260513
-0.0350072 0.0349195 0.0344968
0.00521478 0.0408862 0.0331317
0.00844995 0.0347429 0.0363188
-0.049248 0.0334822 0.0271216
-0.0265148 0.0389109 0.0380119
0.00481648 0.034878 0.0372874
0.0067252 0.0346837 0.0378885
-0.0453807 0.0342435 0.0276949
-0.00595267 0.0393217 0.0364793
0.0035768 0.0395277 0.0347047
0.00207093 0.034729 0.0386001
0.003107 0.034855 0.038781
-0.0309598 0.0375747 0.0325702
-9.48834e-05 0.0390819 0.0358528
-0.00150161 0.0350159 0.0394298
0.000289376 0.0343481 0.0401794
-0.0304978 0.0418869 0.0338762
-0.0291112 0.0390032 0.0360873
-0.00384259 0.0389307 0.0369551
-0.00525164 0.0350175 0.0405186
-0.00332353 0.0342981 0.0411215
-0.0698778 0.0621794 0.00841145
-0.0633588 0.0347224 0.0372018
-0.0337007 0.034087 0.0369419
-0.0150839 0.0396539 0.0398993
-0.0133765 0.0392766 0.0385539
-0.00758368 0.0395021 0.0378297
-0.0089159 0.0350285 0.0414634
-0.00700419 0.0359058 0.0421919
-0.033221 0.0345001 0.0386441
-0.032272 0.03436 0.038952
-0.01129 0.039529 0.038844
-0.012651 0.035056 0.042526
-0.0108814 0.0345092 0.0432024
-0.0316582 0.0361236 0.0397009
-0.0164697 0.0348305 0.0436852
-0.0144858 0.0351708 0.0441493
-0.0291785 0.0345508 0.042851
-0.0243209 0.0350408 0.043748
-0.0181124 0.034671 0.0450634
-0.057886 0.0573187 0.0166744
-0.057187 0.0581773 0.0182003
-0.0279311 0.0350892 0.050427
-0.0526415 0.143412 -0.000215607
-0.0467054 0.148453 -0.00347686
-0.0648195 0.14846 -0.0259162

