1611
0.143713 0.145413 -0.086914
0.143989 0.158088 -0.086002
0.133265 0.157371 -0.080446
0.120117 0.145204 -0.083904
0.035703 -0.360830 0.054803
0.013264 -0.356341 0.059955
0.023815 -0.363086 0.047635
-0.125838 -0.204350 -0.364733
-0.118964 -0.208312 -0.352265
-0.119113 -0.202981 -0.338711
-0.125122 -0.191000 -0.335756
-0.133126 -0.184719 -0.348259
-0.135686 -0.193733 -0.363310
0.117188 -0.125819 -0.169401
0.103389 -0.127011 -0.165910
0.107961 -0.143383 -0.173788
0.186318 -0.334384 0.094430
0.184297 -0.346285 0.094624
0.166431 -0.304228 0.108149
0.177898 -0.308155 0.086898
0.168382 -0.301084 0.092520
-0.081685 -0.165094 -0.154807
-0.099684 -0.182824 -0.171851
-0.085569 -0.180424 -0.158502
-0.097493 -0.106736 -0.152140
-0.111278 -0.116318 -0.154077
-0.088618 -0.114063 -0.152109
-0.098184 -0.354279 -0.303614
-0.094506 -0.363129 -0.321609
-0.100968 -0.363862 -0.291947
-0.001940 -0.351907 0.059604
-0.009318 -0.336577 0.062579
-0.014800 -0.338418 0.046399
-0.008342 -0.354869 0.048649
0.132733 -0.239570 -0.215798
0.124101 -0.234335 -0.207298
0.111474 -0.229737 -0.213046
-0.034097 -0.310519 0.060970
-0.031187 -0.283216 0.059812
-0.034883 -0.288221 0.075983
-0.037419 -0.306620 0.077082
0.245877 0.235777 0.134035
0.249666 0.228256 0.142181
0.250128 0.229918 0.154999
0.245588 0.241596 0.159190
0.240405 0.250707 0.140974
0.241936 0.245834 0.133657
0.142002 -0.254536 -0.000647
0.174520 -0.154097 -0.041521
0.175134 -0.146733 -0.051959
0.158328 -0.145124 -0.060280
0.137765 -0.163508 -0.066692
0.160671 -0.162596 -0.039048
-0.047804 -0.209412 -0.071523
-0.037645 -0.212264 -0.075294
-0.019180 -0.150747 -0.146868
-0.032426 -0.157056 -0.147055
-0.038473 -0.169124 -0.147049
-0.027039 -0.180946 -0.146203
-0.009106 -0.174992 -0.145675
-0.003699 -0.158728 -0.146195
-0.249204 -0.296610 0.030601
-0.251608 -0.312087 0.019792
-0.030722 -0.398056 -0.225514
-0.014367 -0.392104 -0.220188
-0.021722 -0.378252 -0.214021
-0.037509 -0.384811 -0.219036
0.199777 -0.213558 0.298265
0.197678 -0.205649 0.307073
0.202267 -0.194507 0.307603
0.212846 -0.194554 0.289333
0.211607 -0.202880 0.283830
0.205802 -0.212545 0.287765
-0.188227 -0.152365 -0.206904
-0.185304 -0.156913 -0.220660
0.186216 0.271425 0.013080
0.192647 0.268728 0.022007
0.195153 0.274369 0.033671
0.183993 0.290683 0.031610
0.179089 0.290047 0.022666
0.179809 0.280707 0.013034
0.001604 -0.221610 -0.070802
-0.002125 -0.218993 -0.086950
-0.019903 -0.215018 -0.089752
-0.120679 -0.233019 0.137934
-0.138962 -0.224774 0.132894
-0.156551 -0.367988 0.147805
0.028057 -0.229745 -0.051882
0.013679 -0.228594 -0.013108
0.017091 -0.228133 -0.027412
0.020948 -0.224318 0.005437
0.035601 -0.216105 0.002814
0.041417 -0.221151 -0.012694
-0.098287 -0.382701 -0.244007
-0.087235 -0.387018 -0.228933
-0.097468 -0.373044 -0.228021
-0.104040 -0.369817 -0.244232
0.029224 -0.323679 0.130491
0.037686 -0.348471 0.121501
0.041272 -0.315368 0.146832
-0.074707 -0.340035 -0.357323
-0.080232 -0.326783 -0.357987
-0.079800 -0.318599 -0.370738
-0.075183 -0.323827 -0.382141
-0.068324 -0.334427 -0.382753
-0.066951 -0.343234 -0.369380
0.110555 -0.352504 0.125926
0.100126 -0.349435 0.154335
0.094525 -0.356270 0.137942
0.032462 0.076005 -0.146604
0.023013 0.076572 -0.145021
0.016453 0.072683 -0.148470
0.036513 0.069289 -0.152752
0.077985 -0.212587 0.075243
0.061410 -0.215602 0.081537
0.062956 -0.218534 0.095748
0.148822 -0.084823 -0.169046
0.159194 -0.097899 -0.178551
0.171375 -0.092476 -0.189850
0.109815 -0.056929 -0.158681
0.125507 -0.063345 -0.160368
0.170049 -0.193584 0.010161
0.156551 -0.199130 0.001475
0.171431 -0.202157 0.023513
-0.212839 -0.070391 -0.333618
-0.210234 -0.083335 -0.333490
-0.209402 -0.087635 -0.318608
-0.155107 -0.217509 -0.168295
-0.161535 -0.216778 -0.179055
-0.156921 -0.203726 -0.186124
-0.168696 -0.225757 -0.184673
-0.172821 -0.239185 -0.183137
-0.179091 -0.243889 -0.194029
0.124256 -0.204035 -0.418989
0.122748 -0.204311 -0.404249
0.116796 -0.218005 -0.406020
0.118643 -0.216572 -0.419699
-0.211614 -0.188055 -0.194006
-0.222850 -0.202157 -0.173330
-0.216555 -0.196189 -0.158690
-0.198792 -0.158130 -0.182310
-0.198014 -0.164401 -0.197792
-0.050914 -0.402853 -0.365458
-0.040020 -0.410190 -0.370603
-0.078215 -0.198747 -0.023015
-0.091921 -0.199699 -0.008426
-0.083527 -0.207183 0.008958
-0.071275 -0.215128 0.007711
-0.060684 -0.207742 -0.005414
-0.015011 -0.393879 -0.364745
-0.033019 -0.392216 -0.363280
0.217296 -0.336266 0.033500
0.203983 -0.331480 0.027588
0.196140 -0.319453 0.039407
0.192875 -0.318236 0.066942
0.192954 -0.331431 0.078105
0.217607 -0.316800 0.088894
0.209098 -0.303968 0.080351
0.203801 -0.298124 0.067356
0.211795 -0.351589 0.059854
0.216454 -0.356075 0.074182
0.222014 -0.344232 0.084555
0.225201 -0.328360 0.078817
0.199616 -0.354426 0.062370
0.193669 -0.347458 0.072932
0.187450 -0.355620 0.081233
0.236804 -0.309365 0.032722
0.232630 -0.313415 0.049213
0.224231 -0.300525 0.052728
0.214718 -0.294507 0.039160
0.235546 -0.293486 0.023160
0.203481 -0.038585 -0.217753
0.203192 -0.042357 -0.202786
0.194753 -0.039163 -0.189952
-0.004360 -0.230203 -0.017742
-0.032703 -0.321439 0.039762
-0.021047 -0.325352 0.036093
0.237906 -0.129463 -0.046153
0.246094 -0.115862 -0.056991
0.235920 -0.119079 -0.062391
0.061872 -0.010058 -0.162867
-0.123559 -0.072024 -0.152118
-0.108837 -0.062003 -0.151480
-0.134577 -0.064539 -0.152084
-0.156285 -0.199990 -0.423779
-0.149085 -0.211548 -0.423699
-0.145445 -0.218576 -0.411614
-0.145783 -0.211923 -0.395217
-0.153800 -0.198705 -0.392092
-0.159082 -0.191961 -0.409639
0.168921 -0.267543 0.112972
0.165199 -0.255342 0.126815
0.163183 -0.268609 0.143878
0.169247 -0.285988 0.120208
0.091264 -0.010375 -0.151722
0.074618 0.001176 -0.155027
-0.160402 -0.118485 -0.142670
-0.152249 -0.116952 -0.125954
-0.139302 -0.139265 -0.130199
-0.153027 -0.133531 -0.147296
0.030113 -0.432814 -0.310038
0.017751 -0.441197 -0.296398
-0.126618 -0.196103 -0.196561
-0.106479 -0.239327 -0.176429
-0.114459 -0.226564 -0.185102
-0.123426 -0.228851 -0.201332
-0.121116 -0.244938 -0.202613
-0.112554 -0.254337 -0.185664
0.048736 -0.266725 0.144003
0.034119 -0.276624 0.135689
0.038945 -0.291120 0.144807
0.054052 -0.285166 0.155214
-0.126518 -0.198206 -0.286805
-0.132357 -0.186418 -0.287259
0.136787 -0.232543 -0.288337
0.137061 -0.241264 -0.299140
0.134329 -0.251760 -0.296262
-0.204039 -0.285211 -0.100274
-0.214226 -0.295376 -0.097844
-0.140480 -0.126442 -0.102260
-0.155893 -0.116478 -0.085609
-0.157149 -0.129159 -0.069833
-0.142860 -0.143771 -0.068394
-0.132268 -0.141240 -0.091290
-0.179887 -0.266594 -0.097349
0.141342 -0.133569 -0.205960
0.132006 -0.144441 -0.235942
0.138976 -0.129401 -0.231802
0.092432 -0.019756 -0.155209
0.052084 -0.376484 -0.097832
0.062778 -0.370346 -0.113655
0.105177 -0.189990 -0.106447
0.136120 -0.159127 -0.136648
0.117489 -0.162226 -0.136553
-0.121106 -0.375848 -0.116303
-0.091542 -0.377917 -0.090100
-0.096158 -0.379251 -0.072216
-0.113054 -0.376735 -0.077390
-0.124134 -0.380647 -0.099563
-0.180189 -0.280007 -0.097596
-0.187342 -0.291804 -0.104352
-0.189394 -0.295372 -0.087567
-0.182775 -0.283569 -0.084085
0.038339 -0.424265 -0.277723
0.050164 -0.413263 -0.294723
0.057000 -0.400565 -0.288989
0.098079 -0.224746 -0.043339
0.084197 -0.227993 -0.042188
0.083697 -0.225591 -0.028199
0.098434 -0.224370 -0.029465
0.049384 -0.345091 0.139587
0.067685 -0.350430 0.146031
0.065325 -0.330200 0.159343
0.106875 -0.229648 -0.018980
0.107298 -0.228401 -0.006663
0.118783 -0.238179 -0.004957
0.118133 -0.240157 -0.020705
0.020852 -0.324749 0.115437
0.017367 -0.303557 0.116301
0.010384 -0.312374 0.101998
0.016552 -0.327598 0.102366
-0.028128 0.032495 -0.167027
-0.013692 0.037909 -0.170101
-0.017046 0.045028 -0.166074
0.071721 -0.242307 -0.200974
0.066757 -0.239070 -0.188924
0.058854 -0.249369 -0.176815
-0.111003 -0.344243 0.167457
-0.103666 -0.325812 0.168708
-0.131756 -0.310210 0.176767
0.160260 -0.210383 0.018869
0.149726 -0.221367 0.009896
0.155922 -0.221955 0.020627
-0.214346 -0.068775 -0.308983
-0.214632 -0.071501 -0.295248
-0.214937 -0.059526 -0.293828
-0.214432 -0.056307 -0.307437
0.076114 -0.379388 -0.093791
0.068704 -0.383313 -0.078599
0.055853 -0.381964 -0.074010
-0.296429 0.131960 0.396007
-0.293126 0.151655 0.392391
-0.282401 0.152653 0.400966
-0.276747 0.143379 0.406843
-0.279921 0.132637 0.406676
-0.289243 0.127588 0.401727
0.091954 0.417775 0.130480
0.083465 0.422182 0.136449
0.073399 0.426182 0.133383
0.069886 0.426546 0.124787
0.079044 0.418925 0.105766
0.089049 0.414792 0.108870
0.094403 0.414436 0.119083
0.076415 -0.218385 0.403375
0.087632 -0.216900 0.400170
0.095272 -0.222496 0.393323
0.092435 -0.232466 0.387722
0.083411 -0.240317 0.387316
0.072847 -0.242709 0.392165
0.067427 -0.236178 0.399073
0.068744 -0.226018 0.402895
0.085173 -0.354646 -0.121809
0.103547 -0.031299 -0.155287
-0.189633 -0.138046 -0.179962
-0.194297 -0.130124 -0.168986
-0.165679 -0.129016 -0.160514
-0.155763 -0.144101 -0.167816
0.042581 0.021205 -0.165540
0.033705 0.029761 -0.167637
-0.058570 -0.384215 -0.353215
-0.233475 -0.024946 -0.226024
-0.238801 -0.024583 -0.239802
-0.233067 -0.020519 -0.250260
-0.224970 -0.029230 -0.226995
-0.157587 -0.341441 0.172505
-0.127973 -0.349661 0.169277
-0.140331 -0.334015 0.176023
-0.015000 -0.008470 -0.172854
-0.014837 -0.020594 -0.169762
-0.005536 -0.023810 -0.169206
0.002727 -0.016357 -0.171210
0.002352 -0.003856 -0.174529
-0.221585 -0.056636 -0.157413
-0.229177 -0.041080 -0.152871
-0.238066 -0.033674 -0.161979
-0.265288 0.056390 -0.130479
-0.259992 0.042882 -0.125385
-0.244787 0.039479 -0.118183
-0.236127 0.050728 -0.114364
-0.243498 0.063849 -0.121537
-0.257753 0.067451 -0.130519
-0.133149 -0.022897 -0.129717
-0.045235 -0.315667 -0.168514
-0.053286 -0.300192 -0.170776
-0.036166 -0.296431 -0.164760
-0.028155 -0.310804 -0.165529
-0.095531 -0.281933 -0.150791
-0.086746 -0.267059 -0.159750
0.030017 -0.404696 -0.242519
0.015596 -0.403117 -0.228909
-0.001471 -0.418805 -0.244050
0.022709 -0.419670 -0.254189
0.184621 -0.313157 -0.102256
0.173332 -0.306469 -0.089462
0.173324 -0.311029 -0.116990
-0.257532 -0.304479 -0.100604
-0.267003 -0.295684 -0.100124
-0.270653 -0.288380 -0.115187
-0.077092 -0.233691 0.109657
-0.102832 -0.222567 0.116907
-0.102928 -0.238166 0.135386
0.065356 -0.199033 -0.183789
0.070296 -0.183988 -0.184884
0.057835 -0.176311 -0.172708
0.045220 -0.186111 -0.165834
0.052181 -0.201292 -0.171934
0.071812 -0.286342 -0.250763
0.068565 -0.288370 -0.237832
0.066468 -0.300270 -0.241330
0.069588 -0.298354 -0.253245
0.125078 -0.286798 0.169371
0.104830 -0.283631 0.169284
0.084783 -0.275037 0.164478
0.070069 -0.279494 0.162021
0.230482 -0.127138 0.085987
0.226464 -0.128880 0.073660
0.220949 -0.139632 0.068797
0.218361 -0.152935 0.076683
0.221092 -0.154960 0.089978
0.225548 -0.145459 0.097598
0.230107 -0.134079 0.095881
0.098057 -0.223126 -0.108801
0.108093 -0.238667 -0.119479
0.114922 -0.247852 -0.103928
0.105711 -0.230080 -0.092103
0.086067 -0.215552 0.083081
0.100507 -0.219909 0.098108
0.097741 -0.221450 0.083749
-0.033665 -0.413460 -0.419016
-0.041244 -0.408164 -0.436752
-0.042442 -0.409536 -0.423923
-0.000983 -0.449387 -0.299717
0.141028 -0.057520 -0.145478
0.126606 -0.046356 -0.146894
0.167139 -0.062368 -0.159288
-0.180127 -0.108111 -0.080634
-0.168428 -0.105262 -0.096159
-0.180135 -0.100269 -0.121049
-0.195767 -0.093859 -0.115296
-0.196163 -0.102379 -0.087872
0.052757 -0.337636 -0.344121
0.060917 -0.337794 -0.328975
0.060336 -0.354858 -0.325510
0.052373 -0.359439 -0.338736
0.046998 -0.349485 -0.346873
0.116243 0.084725 -0.105617
0.121491 0.091906 -0.099614
-0.202959 -0.100244 -0.223336
-0.191167 -0.118179 -0.219026
-0.191052 -0.119726 -0.193256
-0.193192 -0.105083 -0.181292
-0.033784 -0.252362 0.026361
-0.026682 -0.233254 0.002341
-0.035886 -0.238138 0.013027
0.071557 -0.324093 -0.134932
-0.217829 -0.042971 -0.246843
-0.219052 -0.023702 -0.260486
0.237479 -0.231740 -0.069568
0.235231 -0.252674 -0.058751
0.229696 -0.266740 -0.064866
0.231133 -0.253607 -0.088305
0.235857 -0.236819 -0.080801
-0.123559 -0.293398 -0.143130
-0.115655 -0.282609 -0.134052
-0.107667 -0.288926 -0.133490
-0.108289 -0.307342 -0.136256
-0.128244 -0.318580 -0.148742
-0.116360 -0.318885 -0.140250
-0.117374 -0.344254 -0.138472
-0.130133 -0.360013 -0.135404
-0.146994 -0.358643 -0.132216
-0.142773 -0.331169 -0.150060
0.037492 0.037230 -0.165150
0.044935 0.040035 -0.161557
-0.055485 0.023504 -0.155076
-0.058456 0.009458 -0.156771
-0.040343 0.010142 -0.165878
-0.035674 0.018672 -0.166409
-0.035499 0.027473 -0.164297
-0.044725 0.031070 -0.158156
0.050446 0.061690 -0.155237
0.058604 0.060783 -0.150270
0.066868 0.065771 -0.144354
0.050887 0.076672 -0.148802
0.046279 0.069423 -0.152981
0.063735 -0.364060 -0.271070
0.061812 -0.348668 -0.281332
0.061199 -0.342272 -0.265081
0.061034 -0.357744 -0.258561
-0.088582 -0.417393 -0.299586
0.135400 -0.130523 -0.273387
0.136836 -0.129189 -0.259961
0.126908 -0.137740 -0.275924
-0.175318 -0.239452 0.140394
-0.168274 -0.257182 0.156890
-0.153395 -0.234371 0.142903
-0.169689 -0.328127 0.173476
-0.182095 -0.315074 0.170863
-0.196360 -0.323044 0.163202
-0.135372 -0.286598 -0.148240
-0.151992 -0.298538 -0.151155
-0.162959 -0.282440 -0.145348
-0.140076 -0.268511 -0.142182
0.108635 0.013679 -0.123642
0.113551 0.000788 -0.124196
0.141221 0.033264 -0.096119
0.135692 0.042425 -0.098915
0.122164 0.044240 -0.106602
0.110378 0.031637 -0.116184
0.059214 -0.233783 0.123295
0.060940 -0.251341 0.141412
0.082020 -0.243614 0.146109
0.080189 -0.226603 0.125193
0.003088 -0.285781 0.090857
-0.002497 -0.294074 0.080568
-0.001413 -0.311477 0.083801
0.061526 -0.291535 -0.210514
0.054698 -0.295101 -0.197891
0.051855 -0.307395 -0.200922
0.058538 -0.307412 -0.215504
0.075123 -0.240226 -0.212868
0.074549 0.036253 -0.143510
0.075099 0.025600 -0.146218
0.081511 0.016654 -0.145614
0.088460 0.013016 -0.142662
0.091416 0.026094 -0.135138
0.170482 -0.097300 -0.240508
0.170615 -0.098653 -0.225068
0.159182 -0.106058 -0.223144
0.157707 -0.106705 -0.238439
0.146871 -0.282671 -0.105471
0.141174 -0.279235 -0.120533
0.146668 -0.287537 -0.130405
0.162154 -0.299469 -0.098352
0.154965 -0.292556 -0.106836
-0.249130 -0.301072 -0.068986
-0.237366 -0.302943 -0.078806
-0.185874 -0.235772 -0.033371
-0.232544 -0.320998 -0.057195
-0.217798 -0.306874 -0.062912
-0.204770 -0.301592 -0.066499
-0.203195 -0.312362 -0.079017
0.012650 0.008304 -0.175196
0.021009 0.010817 -0.173497
0.022928 0.019068 -0.172782
-0.281910 -0.281743 -0.068270
-0.272675 -0.292278 -0.077344
-0.263432 -0.298671 -0.069682
-0.088907 -0.229130 -0.121320
-0.089837 -0.251056 -0.147781
0.018849 -0.398627 -0.348470
0.027541 -0.407050 -0.338923
0.021827 -0.419873 -0.334682
-0.096547 -0.389291 -0.304577
-0.092793 -0.379290 -0.319075
-0.089948 -0.403680 -0.306848
0.180223 -0.054584 -0.257966
0.179580 -0.044720 -0.271604
0.179458 -0.044795 -0.248819
-0.057272 -0.121047 -0.150317
-0.048443 -0.123151 -0.149736
-0.095799 -0.215831 -0.094487
-0.095182 -0.213509 -0.079269
-0.080746 -0.205784 -0.075204
0.200544 -0.051488 -0.339684
0.189479 -0.056073 -0.343381
0.188921 -0.069389 -0.350594
0.198369 -0.076365 -0.354278
0.204764 -0.076469 -0.344041
0.207315 -0.064682 -0.336402
-0.054764 -0.266868 0.112144
-0.045023 -0.278219 0.099724
-0.045547 -0.262100 0.088356
-0.055187 -0.253072 0.100869
-0.208875 -0.134772 -0.401789
-0.218097 -0.143659 -0.401693
-0.216203 -0.154967 -0.406031
-0.206417 -0.155726 -0.414336
-0.195766 -0.150072 -0.409921
-0.196562 -0.140089 -0.401867
0.197308 -0.298008 -0.053359
0.203327 -0.297716 -0.039930
0.002839 0.047272 -0.166858
-0.096733 -0.268708 0.152900
-0.123330 -0.283092 0.168992
-0.077810 -0.244403 0.122887
-0.085363 -0.262592 0.142626
-0.073577 -0.259057 0.130408
-0.149408 -0.300869 0.176313
-0.142799 -0.278874 0.169932
-0.162387 -0.281627 0.169851
-0.167627 -0.298205 0.173547
-0.108773 -0.371717 0.121826
-0.111854 -0.371721 0.139768
-0.127251 -0.371722 0.139562
-0.069970 -0.202407 -0.063914
-0.068415 -0.199056 -0.046930
-0.051650 -0.203229 -0.039725
0.033554 0.054772 -0.160484
0.029805 0.062818 -0.155819
0.019492 0.064451 -0.153971
0.013158 0.058445 -0.158490
0.010390 -0.299617 -0.170829
0.009660 -0.283113 -0.171019
0.024777 -0.281201 -0.166359
0.026334 -0.297741 -0.165540
0.045764 -0.273931 -0.138498
0.037679 -0.277602 -0.154439
0.031996 -0.258900 -0.155837
0.042158 -0.255870 -0.137088
-0.065655 -0.228233 -0.135522
-0.080732 -0.236580 -0.140806
-0.203469 -0.098841 -0.192029
-0.034976 0.067327 -0.148413
-0.020305 0.059649 -0.157376
-0.015046 0.067758 -0.153250
-0.019763 0.076350 -0.147002
0.086910 0.043086 -0.133671
0.091885 0.055924 -0.127608
0.089264 0.068669 -0.127641
0.082627 0.068447 -0.134166
0.076115 0.061298 -0.139868
-0.136842 -0.210301 0.091079
-0.126318 -0.211459 0.107526
-0.109920 -0.211517 0.100944
-0.117559 -0.206709 0.085268
0.035127 -0.344524 0.079093
0.023996 -0.338384 0.089921
0.015508 -0.338239 0.081830
0.024974 -0.346603 0.072269
0.131544 -0.363660 0.109607
0.140530 -0.374319 0.102366
0.151727 -0.367270 0.104538
0.141474 -0.355490 0.112632
-0.221763 -0.122141 -0.391334
-0.210872 -0.123616 -0.396641
-0.201834 -0.120601 -0.386001
-0.205030 -0.111539 -0.377580
-0.216160 -0.104614 -0.382958
-0.223758 -0.112488 -0.385244
0.139479 -0.147166 -0.181602
0.154033 -0.166447 -0.190204
-0.215326 -0.339797 -0.079805
-0.222265 -0.340869 -0.070120
-0.226945 -0.328832 -0.065993
-0.187077 -0.268988 -0.085428
-0.202659 -0.278962 -0.074599
-0.198383 -0.275887 -0.086918
-0.216909 -0.293566 -0.085687
-0.224091 -0.296546 -0.075636
0.114098 -0.206302 -0.252132
0.111576 -0.216188 -0.240917
-0.158663 -0.199655 -0.268968
-0.168802 -0.192126 -0.274048
-0.177269 -0.181076 -0.266186
-0.180197 -0.171460 -0.251677
0.098515 -0.196241 -0.264685
0.088666 -0.212086 -0.252881
0.097658 -0.204031 -0.255172
-0.154358 -0.174197 -0.272083
-0.148352 -0.185137 -0.273053
0.106062 -0.174533 -0.271890
0.113027 -0.179456 -0.263841
0.098425 -0.181049 -0.276200
0.090849 -0.220823 -0.241753
0.083244 -0.233522 -0.220521
0.084609 -0.235179 -0.233262
0.085692 -0.229010 -0.242930
0.084243 -0.208265 -0.199008
0.082291 -0.218648 -0.203420
0.074889 -0.274522 -0.127719
0.074201 -0.290293 -0.132451
-0.220944 -0.049433 -0.217045
-0.219185 -0.055229 -0.236285
-0.220079 -0.071651 -0.231802
-0.219335 -0.084337 -0.218949
-0.010238 -0.241332 0.008182
-0.016953 -0.245954 0.013000
-0.078114 -0.443679 -0.312496
-0.071568 -0.439110 -0.296102
-0.088179 -0.426622 -0.316112
-0.202726 -0.068869 -0.150067
-0.193623 -0.073924 -0.160973
-0.175035 -0.069052 -0.154265
0.035767 -0.232989 -0.081498
-0.212730 0.012203 -0.104362
-0.207873 0.018602 -0.094972
-0.104761 -0.346274 -0.243820
-0.102276 -0.347760 -0.228796
-0.106014 -0.333294 -0.245145
-0.067324 -0.335820 -0.194282
-0.085775 -0.338332 -0.196546
-0.081594 -0.355341 -0.202248
-0.062522 -0.348912 -0.198646
-0.105521 -0.323783 -0.206791
-0.091581 -0.321093 -0.192425
-0.098977 -0.307696 -0.191442
-0.110110 -0.306205 -0.203927
-0.171231 -0.362038 0.145262
-0.220612 -0.309981 0.135275
-0.213957 -0.325669 0.142923
-0.208588 -0.314202 0.156536
-0.214936 -0.298440 0.149561
-0.111725 -0.260160 0.155167
-0.124530 -0.251307 0.153752
-0.201004 -0.334448 -0.101360
-0.201053 -0.320611 -0.104723
-0.196405 -0.322501 -0.120101
0.053162 -0.236061 -0.085828
0.104123 -0.321759 0.171548
0.079768 -0.327757 0.165813
0.095055 -0.334100 0.166436
-0.134354 -0.215040 -0.053837
0.133793 -0.327159 0.163264
0.152564 -0.320816 0.154048
0.119529 -0.317713 0.171372
0.133634 -0.343312 0.132851
0.132051 -0.341421 0.149356
0.117437 -0.347151 0.152354
0.015700 0.036632 -0.170576
0.026742 0.048519 -0.163418
0.045169 -0.238157 0.116428
0.047177 -0.228184 0.102983
0.031393 -0.236401 0.095307
0.030906 -0.247807 0.110631
0.024155 -0.330521 -0.191779
0.029199 -0.342047 -0.197107
0.044211 -0.341224 -0.208780
-0.067551 -0.349283 0.097325
-0.082957 -0.355555 0.091271
-0.089119 -0.349527 0.075764
-0.212269 -0.090283 -0.190460
-0.221226 -0.068074 -0.196448
0.128976 -0.183337 -0.376260
0.136399 -0.174646 -0.386734
0.143615 -0.161825 -0.385069
0.144971 -0.158205 -0.369987
0.137489 -0.164469 -0.357243
0.127235 -0.177056 -0.363233
0.127566 0.109064 -0.093596
0.132618 0.131692 -0.087677
0.119955 0.131794 -0.089665
0.109097 0.122017 -0.098541
0.118523 0.103014 -0.097793
-0.107203 -0.289972 0.165980
-0.102358 -0.306161 0.167369
-0.076061 -0.307351 0.150957
0.093233 -0.359554 -0.107734
0.100388 -0.358249 -0.092429
0.098173 -0.364249 -0.079400
0.268669 -0.027985 0.284204
0.273150 -0.007654 0.285174
0.276237 -0.005972 0.272643
0.275749 -0.014636 0.264166
0.272680 -0.025969 0.264819
0.269582 -0.031905 0.274424
-0.154604 -0.226536 -0.036843
-0.164707 -0.235959 -0.030523
-0.242545 -0.303029 -0.029738
-0.252151 -0.286664 -0.032312
-0.254922 -0.291690 -0.042972
-0.244734 -0.294768 -0.051837
-0.208543 -0.340915 0.118668
-0.199653 -0.352776 0.111181
-0.182819 -0.357484 0.115438
-0.183664 -0.355212 0.132153
-0.195346 -0.346759 0.137779
-0.206313 -0.338558 0.133336
-0.100436 -0.391660 -0.287963
-0.091692 -0.406994 -0.275307
-0.087841 -0.404679 -0.258726
-0.099466 -0.387848 -0.258137
-0.101778 -0.377283 -0.279741
-0.022105 0.008682 -0.173005
0.179759 -0.041471 -0.237108
0.184844 -0.029594 -0.237674
0.191686 -0.029618 -0.227883
0.188830 -0.032499 -0.216088
0.183590 -0.038742 -0.210268
0.179167 -0.052144 -0.224071
-0.153546 -0.038119 -0.127131
-0.184276 -0.032177 -0.111028
-0.187732 -0.054338 -0.119917
-0.189184 -0.064183 -0.135468
-0.171256 -0.061168 -0.141557
-0.143317 -0.189814 -0.194699
-0.155610 -0.198998 -0.198234
-0.161523 -0.204273 -0.210272
-0.149624 -0.200935 -0.218329
-0.240237 -0.290551 -0.017980
-0.242466 -0.292688 -0.000496
-0.250030 -0.280947 -0.013417
-0.197651 -0.255520 -0.015785
-0.201286 -0.242594 -0.019993
-0.259341 -0.285442 0.009862
-0.250135 -0.280375 -0.002651
-0.250091 -0.287482 0.020229
-0.240228 -0.280871 -0.008211
-0.149875 -0.196290 -0.207407
-0.170846 -0.043130 -0.120585
0.182114 -0.037311 -0.223340
-0.016962 0.019830 -0.173392
-0.099655 -0.392792 -0.273556
-0.194667 -0.347297 0.122932
-0.242544 -0.290575 -0.035012
0.272377 -0.019177 0.276602
0.121134 0.117343 -0.093530
0.137089 -0.170368 -0.372762
0.036988 -0.236951 0.106675
-0.217213 -0.312906 0.147436
-0.103559 -0.315820 -0.196357
-0.074442 -0.344469 -0.195380
-0.185769 -0.068992 -0.148944
-0.221433 -0.068327 -0.214569
0.092150 -0.229837 -0.231221
-0.193696 -0.272113 -0.074993
-0.213152 -0.114280 -0.389136
0.141188 -0.364963 0.109019
0.026633 -0.341540 0.079553
-0.123535 -0.207943 0.095952
0.084432 0.058162 -0.133999
-0.025478 0.067816 -0.150976
0.040122 -0.264504 -0.147179
0.018224 -0.290721 -0.170341
0.022696 0.055834 -0.159279
-0.154351 -0.288573 0.173627
-0.109529 -0.275390 0.161944
-0.207328 -0.145553 -0.407462
-0.048267 -0.265398 0.100632
0.199387 -0.064271 -0.347266
0.010526 0.019956 -0.174961
-0.222711 -0.317395 -0.064518
-0.233401 -0.299001 -0.062727
0.165370 -0.102842 -0.231511
0.082108 0.029733 -0.140348
0.057845 -0.300629 -0.205762
0.071330 -0.237063 0.134522
-0.147896 -0.280364 -0.148717
-0.165371 -0.244456 0.148988
0.061703 -0.353324 -0.269197
0.056935 0.070347 -0.148657
-0.045444 0.017843 -0.161115
0.035817 0.045311 -0.163707
-0.124840 -0.334259 -0.145974
-0.115557 -0.300911 -0.137747
0.232194 -0.249024 -0.070371
0.080883 -0.319684 -0.134698
-0.024902 -0.244520 0.011833
-0.198016 -0.107295 -0.205150
0.109202 0.095235 -0.105357
0.056027 -0.347956 -0.337830
-0.183150 -0.097923 -0.102204
0.105590 -0.235674 -0.106377
0.224450 -0.140300 0.084018
0.105769 -0.306536 0.173206
0.068154 -0.293093 -0.245436
0.057693 -0.188792 -0.177075
-0.090737 -0.233755 0.122864
0.168816 -0.306756 -0.104402
0.013807 -0.413624 -0.241795
-0.096475 -0.267321 -0.147053
-0.041108 -0.306071 -0.167043
-0.249603 0.053127 -0.127941
-0.006029 -0.010456 -0.172737
-0.230219 -0.023740 -0.237150
0.032069 0.020189 -0.169748
0.080923 -0.229782 0.396336
0.081389 0.421163 0.121308
-0.288620 0.140270 0.399684
-0.214946 -0.064374 -0.301135
-0.121760 -0.329378 0.174528
-0.023525 0.039638 -0.166148
0.015240 -0.317410 0.109119
0.112065 -0.234206 -0.011732
0.091376 -0.223094 -0.036248
-0.184607 -0.288058 -0.093740
-0.108486 -0.376166 -0.093684
0.126957 -0.171398 -0.114235
0.079686 -0.369935 -0.110494
0.136759 -0.140881 -0.220410
-0.178094 -0.271479 -0.088006
-0.143391 -0.129944 -0.083090
-0.208071 -0.285575 -0.088299
0.043799 -0.278086 0.146156
-0.117129 -0.239997 -0.189324
-0.134195 -0.189690 -0.197214
-0.147737 -0.126953 -0.136962
0.083184 -0.009399 -0.154926
0.170634 -0.270923 0.128198
-0.151399 -0.205908 -0.409849
0.242458 -0.126157 -0.055123
0.193818 -0.035565 -0.205991
0.231037 -0.298425 0.039889
0.228408 -0.311834 0.061051
0.223403 -0.341603 0.069025
0.222759 -0.312968 0.073144
0.199483 -0.341837 0.061612
0.205343 -0.336018 0.040808
-0.074218 -0.203669 -0.005786
-0.205615 -0.176529 -0.185271
0.120741 -0.210868 -0.412303
0.163047 -0.202376 0.012465
0.073881 -0.213942 0.087605
0.026220 0.069620 -0.150249
0.109740 -0.351934 0.141727
-0.073922 -0.331409 -0.369636
0.039548 -0.331208 0.140562
-0.097543 -0.378866 -0.235002
-0.172108 -0.349678 0.163517
-0.135792 -0.240342 0.147970
0.186693 0.280178 0.025002
-0.184687 -0.148783 -0.214304
0.205988 -0.202053 0.296116
-0.025687 -0.387803 -0.219074
-0.245302 -0.295428 0.015151
-0.021671 -0.165054 -0.145893
0.150102 -0.158948 -0.051899
0.244985 0.240629 0.145316
-0.031475 -0.296377 0.067061
-0.010107 -0.345568 0.055126
-0.096618 -0.371259 -0.306777
0.189746 -0.343110 0.085270
-0.125230 -0.196813 -0.350782
0.132224 0.144122 -0.083976
-0.108008 -0.325941 -0.238988
-0.073542 0.118731 -0.114817
-0.061431 -0.376276 -0.352013
-0.288066 -0.267094 -0.077884
0.107489 0.136947 -0.095599
-0.016385 -0.290755 -0.194017
-0.026855 0.134945 -0.106644
0.151366 -0.157627 -0.175751
-0.051657 -0.282495 0.115241
0.218457 -0.286977 -0.106322
0.062582 -0.303366 -0.341983
0.028824 -0.244001 -0.143948
-0.113019 -0.191888 0.047938
-0.016654 0.001223 -0.173945
0.060073 -0.393780 -0.279159
-0.144412 -0.173478 -0.163799
0.029883 0.400043 0.027141
0.158630 0.372768 0.176933
0.097055 0.392888 0.249298
-0.072371 -0.244500 -0.153934
0.121558 -0.274772 -0.116089
-0.105713 -0.428061 -0.171448
0.090358 -0.318208 -0.133573
0.150074 -0.114386 -0.193952
-0.097483 -0.193529 0.032869
0.071631 -0.312801 -0.272431
-0.136004 -0.369888 0.125001
-0.048176 -0.314770 -0.194285
-0.067195 0.015374 -0.150978
0.231892 0.236852 0.067040
-0.104900 0.026739 -0.132064
-0.037853 -0.345538 0.040084
-0.219937 -0.040260 -0.233499
-0.107067 0.157232 -0.135994
0.108861 0.295401 -0.041109
-0.199281 0.006950 -0.101722
0.029566 -0.388369 -0.118990
0.047512 0.165931 -0.128726
0.116396 -0.069784 -0.159292
-0.356427 -0.008948 0.143590
0.071835 -0.057669 -0.157132
0.113346 -0.231698 0.052242
-0.230882 0.035410 -0.106408
0.077464 -0.213795 -0.197377
-0.103345 -0.359790 -0.233435
0.046133 -0.393465 -0.328293
0.094649 -0.199136 -0.358746
0.159982 -0.152145 -0.134000
-0.274713 -0.135757 0.349863
0.057831 0.301658 -0.055075
-0.220352 -0.072063 -0.182700
-0.101570 -0.294560 -0.140732
-0.036297 -0.428531 -0.253823
0.032789 -0.417289 -0.324273
0.234748 -0.068877 0.022889
0.064559 -0.211737 0.070724
-0.016350 -0.355155 0.039842
-0.086454 -0.215651 -0.102797
0.126020 -0.034913 -0.135109
0.132643 -0.203958 -0.033659
0.198845 -0.303764 0.197592
0.165762 -0.187774 -0.221189
-0.061336 0.174012 -0.119498
-0.228193 -0.284711 0.057499
-0.109486 -0.326896 -0.136235
0.179407 -0.059045 -0.240760
0.149726 -0.283070 -0.065074
-0.030890 -0.213826 -0.058672
0.196880 -0.320484 0.028152
-0.094122 -0.367326 0.133902
0.223095 -0.102464 -0.005231
-0.050522 -0.375157 0.002668
-0.089572 -0.395039 -0.244091
0.094920 -0.240828 -0.081034
0.244765 -0.224772 -0.063655
-0.214922 -0.327694 0.125652
0.014567 0.082392 -0.141539
0.209196 -0.257348 0.231485
-0.236839 -0.092317 -0.364090
0.211655 -0.126571 -0.047250
0.031975 -0.232194 -0.106543
-0.055445 -0.269370 -0.182104
-0.105518 -0.293200 -0.192587
-0.180663 -0.127414 -0.245752
-0.058021 0.307954 0.375626
-0.268899 0.053326 0.416872
0.179817 -0.339248 0.103883
0.204681 -0.089755 -0.137136
-0.148468 -0.210478 -0.162683
0.185097 -0.146048 -0.043834
0.042592 -0.280870 -0.179851
0.058219 -0.237499 -0.175024
-0.215750 -0.078268 -0.258729
-0.044647 -0.366827 -0.176758
0.259750 0.086848 0.025731
-0.106958 -0.201068 -0.179621
0.006326 -0.215493 -0.147822
-0.110695 0.052931 -0.139139
-0.005688 -0.145212 -0.146922
-0.215252 -0.266155 0.104361
-0.171610 0.356464 0.292250
-0.259210 -0.296388 -0.056747
-0.089128 -0.206105 0.430459
-0.006657 -0.337699 -0.442106
0.231354 -0.118938 0.077881
0.141034 -0.265973 -0.219719
-0.038955 0.171806 -0.104560
-0.008110 -0.219902 -0.058967
-0.110546 -0.267330 -0.313494
0.015485 -0.239528 0.033013
0.021508 0.000849 -0.172416
0.189871 -0.029225 -0.073856
-0.138743 -0.169204 -0.306248
0.094575 -0.221821 -0.015568
-0.100257 -0.339467 -0.213254
0.057533 -0.345519 -0.246740
-0.085348 -0.382670 -0.333795
0.244742 0.011625 -0.011628
-0.106142 -0.427642 -0.093552
-0.293142 -0.250530 -0.101689
-0.177542 -0.225667 -0.033701
-0.143055 -0.180852 -0.049239
0.080674 -0.343231 0.157744
-0.069346 -0.224026 0.066936
-0.080325 -0.427036 -0.289380
-0.077426 0.175563 -0.135068
0.044822 -0.379204 -0.079951
0.074751 0.128270 -0.117938
0.044210 -0.199842 0.036745
0.055191 -0.194403 0.018169
-0.036701 -0.208380 -0.150337
0.134184 -0.206855 -0.055576
-0.084867 -0.483380 -0.331924
-0.097619 -0.319913 -0.311816
0.079800 -0.216431 -0.292691
0.006488 -0.357805 -0.199230
0.083782 -0.220789 -0.251284
0.070261 -0.260431 -0.120514
-0.031564 -0.367954 0.026662
-0.185895 -0.332616 -0.130720
-0.133951 -0.304013 -0.151380
-0.196528 -0.116646 -0.155485
-0.068441 0.422362 0.071830
-0.201544 -0.353168 -0.092316
-0.226064 -0.019379 -0.258427
-0.194198 -0.230786 -0.023830
0.190394 -0.382475 0.104769
0.131738 -0.134959 -0.288980
-0.149928 -0.157937 -0.323819
-0.246743 0.244973 -0.027389
-0.115443 -0.242456 -0.118200
0.129078 -0.154844 -0.241304
-0.223205 -0.030211 -0.330192
-0.231928 -0.016064 -0.284356
-0.132849 -0.208918 0.074967
0.003783 -0.030402 -0.167079
-0.076876 -0.222021 -0.115717
0.178459 -0.029862 -0.272038
0.141084 -0.290905 -0.216716
-0.179499 -0.199171 -0.036507
-0.109813 -0.101751 -0.152499
-0.227524 -0.302413 -0.092603
0.237534 -0.022616 -0.011776
0.243683 -0.037024 0.003780
0.231331 -0.066601 -0.028890
0.230765 0.067795 -0.107778
0.194804 0.103948 -0.094670
-0.277969 -0.101783 -0.069852
-0.196920 -0.199261 -0.027790
0.151697 -0.265755 0.068943
-0.115905 -0.232039 -0.055708
-0.096909 -0.325769 -0.151894
-0.060143 -0.133831 -0.150134
0.205545 -0.363809 0.068024
0.194852 -0.293441 0.076058
0.193045 -0.302278 0.044389
0.097641 -0.110969 -0.161012
0.064821 -0.292550 -0.402593
-0.004290 -0.375312 -0.209668
-0.048952 0.142954 -0.105354
-0.128491 -0.208439 -0.275257
-0.108334 -0.226688 -0.096687
0.146531 -0.240136 -0.010405
0.100195 -0.172380 -0.312274
0.041968 -0.218562 0.050991
-0.196354 -0.251504 0.033007
-0.127977 -0.200522 0.054932
0.217532 -0.125176 0.033134
-0.137862 0.103446 -0.100801
-0.068851 -0.389313 -0.021127
-0.279811 -0.340325 0.038769
-0.248335 -0.289917 0.060652
0.122896 -0.354597 -0.300852
-0.093926 0.174892 -0.137621
-0.094191 0.240238 -0.092989
-0.151851 -0.154204 -0.295598
-0.200073 -0.109839 -0.346096
-0.107243 -0.259777 -0.398936
0.202043 -0.100713 -0.111681
0.090517 0.131735 -0.109871
0.134678 -0.342731 -0.236688
0.197686 -0.115371 -0.138296
0.042165 -0.359925 -0.346673
-0.262110 -0.064893 -0.119702
-0.143711 0.251645 -0.087580
-0.144005 0.274968 -0.077681
-0.211680 -0.158989 -0.152001
0.188417 -0.083623 -0.358692
0.240664 -0.128610 -0.035835
-0.195388 -0.158925 -0.418743
-0.208003 -0.398409 0.085711
-0.137042 -0.243327 -0.455149
0.275239 0.158833 0.177527
0.029527 0.095692 -0.130257
0.120103 0.248885 -0.068595
-0.068156 -0.395043 -0.446264
0.190931 -0.021522 -0.262446
0.165914 -0.188934 -0.000209
-0.268328 -0.353465 -0.135664
0.232910 0.255288 0.252456
-0.155485 -0.107939 0.444537
-0.261646 -0.370285 0.069396
0.202887 -0.373086 0.090495
-0.211172 0.046807 0.446939
-0.276717 0.229146 0.357567
-0.063217 0.074236 0.497111
0.102700 -0.420759 0.129430
-0.146097 -0.405616 -0.281738
-0.219836 -0.132561 -0.396845
-0.226574 -0.102688 -0.379478
0.222219 -0.173884 0.284954
-0.123107 0.398665 0.039252
-0.296542 -0.183789 0.260323
-0.234327 -0.064872 -0.360895
-0.320747 0.044381 0.371840
-0.203160 -0.223010 0.372916
0.194240 -0.199006 0.318514
-0.178284 0.398897 0.106122
0.125349 0.317518 0.339985
-0.180203 -0.313242 -0.267853
0.190636 -0.045205 -0.336258
0.194140 -0.030433 -0.315959
-0.059038 -0.413608 -0.003273
0.244132 -0.291765 -0.053100
0.243344 -0.306988 -0.071591
0.224539 -0.338483 -0.042196
0.230791 -0.332329 -0.065712
0.208011 -0.367731 -0.072730
0.223202 -0.348301 -0.080631
-0.274548 -0.228918 0.272772
-0.279501 -0.233481 0.251241
-0.293391 -0.201172 0.250164
-0.289741 -0.217543 0.239128
-0.298771 -0.192287 0.207283
-0.293517 -0.214387 0.216248
-0.289235 -0.222717 0.179876
-0.288681 -0.229386 0.201476
-0.279331 -0.260857 0.192702
-0.282883 -0.249678 0.206441
0.261167 0.184642 0.289007
0.264884 0.186999 0.263717
0.276368 0.150663 0.263661
0.272596 0.168392 0.250105
0.280059 0.144611 0.213871
0.274985 0.165544 0.223731
0.097182 0.037347 0.463881
0.112266 0.054539 0.457034
0.142849 0.035373 0.445011
0.134481 0.052959 0.449791
0.166592 0.070182 0.435546
0.147982 0.069130 0.446533
0.141536 0.085565 0.449105
0.106159 0.073530 0.459989
0.087722 0.077794 0.471798
0.115603 0.107685 0.456703
0.121107 0.088797 0.454985
-0.180615 -0.253561 -0.185761
-0.166261 -0.247915 -0.148670
-0.211218 -0.296475 -0.112231
-0.193138 -0.288376 -0.157230
-0.179743 -0.267727 -0.138002
0.171274 -0.353040 -0.162809
0.162074 -0.336920 -0.172044
0.136930 -0.359913 -0.181601
0.149021 -0.343505 -0.186047
0.143535 -0.330621 -0.201708
0.142487 -0.303413 -0.198146
0.163877 -0.317098 -0.161107
0.182130 -0.317409 -0.151291
0.240439 0.024719 0.375959
0.238551 0.005126 0.372104
0.213523 0.006988 0.398424
0.224040 -0.003857 0.384391
0.203391 -0.031503 0.395604
0.220445 -0.023764 0.381810
0.227004 -0.056025 0.357874
0.231561 -0.034738 0.363551
0.247627 -0.003971 0.353392
0.258577 0.006922 0.338686
0.252974 -0.030353 0.327410
0.245021 -0.023563 0.348643
0.280906 0.132464 0.252652
0.283644 0.129105 0.229836
-0.311550 0.236011 0.214514
-0.315723 0.227142 0.231705
-0.336817 0.172656 0.275300
-0.330779 0.191334 0.264528
-0.320454 0.201556 0.304279
-0.322143 0.207048 0.280212
-0.309400 0.236633 0.252136
-0.296561 0.257219 0.251700
-0.301861 0.237646 0.292712
-0.312064 0.227092 0.274215
-0.263794 0.272710 0.041630
-0.222393 0.347867 0.075272
-0.233172 0.331522 0.066564
-0.229435 0.325744 0.046024
-0.248872 0.300505 0.045401
-0.253900 0.285881 0.034093
-0.228388 0.309686 0.015731
-0.236486 0.311973 0.036120
0.206622 -0.080499 -0.329556
0.181060 -0.067109 -0.335668
0.275078 0.119743 0.119906
-0.277955 0.099644 -0.093935
-0.296091 -0.187333 0.183353
-0.291367 -0.202856 0.172037
-0.299203 -0.186957 0.241728
-0.302138 -0.178916 0.224382
-0.310514 -0.143146 0.210640
-0.317049 -0.127290 0.219394
-0.307357 -0.152647 0.247472
-0.306761 -0.158306 0.225819
0.029244 -0.411248 0.222382
0.046957 -0.405751 0.229838
0.095461 -0.370698 0.271410
0.085154 -0.383108 0.258042
0.045862 -0.397818 0.249480
0.023002 -0.396902 0.257812
0.053625 -0.377618 0.279980
0.062518 -0.387821 0.261893
0.160844 -0.180567 -0.201840
0.167654 -0.188139 -0.242439
0.180522 -0.190793 -0.210870
0.209279 -0.043114 -0.296954
0.206498 -0.075111 -0.301510
-0.310347 -0.067515 0.333946
-0.313382 -0.080957 0.318116
-0.312243 -0.135410 0.253424
-0.318125 -0.123375 0.239935
-0.323809 -0.105791 0.247877
-0.321549 -0.100246 0.270402
-0.310610 -0.130567 0.273073
-0.313638 -0.114466 0.282084
0.050897 0.333040 -0.036726
0.037074 0.345561 -0.030172
0.040318 0.363738 -0.015219
0.056812 0.366097 -0.008605
-0.294164 0.143167 -0.034405
-0.298929 -0.294806 -0.047035
-0.279713 -0.343777 -0.052811
-0.251078 -0.332423 -0.035706
0.208854 -0.351013 -0.035368
0.198333 -0.365269 -0.051141
0.240508 -0.300331 -0.032993
0.231598 -0.322622 -0.027433
0.201076 -0.335692 -0.017031
0.075399 0.013507 -0.150190
0.109744 -0.399068 -0.266798
0.086672 -0.446855 -0.277893
0.198616 -0.052799 0.393176
0.210699 -0.066238 0.375005
0.202910 -0.086338 0.375139
0.205769 -0.102704 0.363290
0.212152 -0.128036 0.337736
0.216805 -0.108512 0.343546
0.229427 -0.098388 0.326884
0.238391 -0.063138 0.334659
0.250606 -0.048552 0.320388
0.246629 -0.081352 0.300793
0.237870 -0.081349 0.322888
0.119452 -0.340091 0.289856
0.131852 -0.322285 0.296210
0.160326 -0.262712 0.313887
0.152111 -0.282858 0.306706
0.124157 -0.310502 0.312094
0.103569 -0.316257 0.322280
0.127365 -0.281597 0.331391
0.135541 -0.292495 0.317973
0.286236 0.045997 0.256401
0.287581 0.038255 0.235129
0.095751 0.112884 0.465492
0.082212 0.098059 0.473998
0.090295 0.133570 0.466709
0.070363 0.140731 0.474708
0.078926 0.176119 0.462258
0.064423 0.163051 0.473126
0.035638 0.194085 0.470008
0.042728 0.171018 0.476702
0.005880 0.159682 0.481594
0.027533 0.154424 0.480309
0.055376 0.125440 0.479174
0.061514 0.103716 0.479285
0.020870 0.116597 0.486734
0.034454 0.131997 0.482072
-0.213907 -0.043961 -0.298150
-0.101218 -0.049967 -0.151873
0.152642 -0.376581 0.164292
0.136561 -0.389628 0.163186
0.138059 -0.401009 0.141966
0.119725 -0.392546 0.179542
-0.283900 -0.235973 0.166879
-0.279700 -0.255353 0.174000
-0.276329 -0.241931 0.135557
-0.282081 -0.228968 0.147125
-0.283547 -0.208704 0.139859
-0.279549 -0.201846 0.121314
-0.288099 -0.196390 0.152397
0.255750 0.166830 0.047641
0.257530 0.146668 0.038192
0.261095 0.131186 0.049704
0.264966 0.105729 0.059696
0.261764 0.112478 0.045560
0.252123 0.143115 0.018308
0.244242 0.159382 0.009855
0.237741 0.156961 -0.007904
-0.116518 0.006016 -0.123129
-0.108399 -0.002527 -0.133193
0.016139 -0.418374 0.046258
0.028749 -0.399064 0.041997
0.042293 -0.399777 0.061866
0.045216 -0.418293 0.077435
0.070183 -0.386667 0.081835
0.051948 -0.379798 0.069438
0.252546 0.228000 0.206042
-0.343878 -0.056236 0.171912
-0.347436 -0.044021 0.160756
-0.065188 -0.415539 0.214448
-0.078763 -0.419185 0.197563
-0.112024 -0.409903 0.218996
-0.100798 -0.416222 0.199321
-0.113762 -0.418068 0.182876
-0.127597 -0.427401 0.147656
-0.111144 -0.425664 0.161311
-0.094136 -0.437600 0.130552
-0.093215 -0.430723 0.151750
-0.068231 -0.424082 0.179414
-0.048736 -0.424933 0.178325
-0.074495 -0.428705 0.160905
0.166442 -0.219593 0.338948
0.164902 -0.201303 0.352708
0.188873 -0.188693 0.332721
0.179015 -0.186489 0.347147
0.199226 -0.139297 0.349907
0.195140 -0.157000 0.344080
0.180743 -0.167920 0.354461
0.171221 -0.159337 0.371076
0.151518 -0.147474 0.393343
0.155355 -0.163248 0.382341
0.148780 -0.198856 0.370398
0.134886 -0.214940 0.372867
0.124907 -0.178089 0.398442
0.143592 -0.179840 0.383323
0.180630 -0.060581 0.403004
0.197219 0.002429 0.407251
0.190072 -0.015961 0.407751
0.160401 0.000233 0.429389
0.170321 -0.017866 0.420623
0.164646 -0.053310 0.414701
0.154015 -0.066705 0.418550
0.137692 -0.035086 0.433613
0.158719 -0.035597 0.423260
-0.003608 0.304161 0.380708
-0.012759 0.288906 0.397279
-0.042458 0.301209 0.381589
-0.035195 0.289533 0.395282
-0.069200 0.282778 0.400629
-0.049519 0.277087 0.405615
-0.065821 0.255013 0.427293
-0.047919 0.261115 0.421150
-0.038428 0.232162 0.445002
-0.030914 0.248943 0.430089
0.001301 0.272497 0.411875
0.025235 0.275174 0.410219
0.009103 0.238447 0.442452
-0.007438 0.253918 0.427946
-0.293359 0.266094 0.230820
-0.302067 0.253811 0.212906
-0.299600 0.259144 0.194038
-0.289840 0.276462 0.190680
-0.281029 0.285652 0.226995
-0.280523 0.289505 0.206067
-0.269580 0.305842 0.201099
-0.256000 0.325024 0.182719
-0.267919 0.308790 0.183538
-0.287236 0.280241 0.171456
-0.293599 0.267197 0.156145
-0.276366 0.296832 0.168259
0.016582 -0.315121 0.360546
0.012443 -0.331244 0.348527
-0.026638 -0.327536 0.356726
-0.009397 -0.338083 0.347351
0.028897 -0.337745 0.335067
0.051534 -0.329969 0.334152
0.035411 -0.358813 0.310460
0.023113 -0.352239 0.323389
0.084913 -0.122378 0.441206
0.067604 -0.133932 0.445843
0.048942 -0.105560 0.456605
0.049872 -0.125279 0.452699
0.032876 -0.135976 0.453591
0.012534 -0.159139 0.450755
0.031421 -0.152439 0.449510
0.065111 -0.152327 0.437305
0.082519 -0.162647 0.427153
0.042063 -0.179327 0.433049
0.046272 -0.161928 0.440904
0.283144 0.033891 0.271684
0.281845 0.015085 0.265329
0.263000 -0.018116 0.312820
0.265262 -0.000325 0.317988
0.272528 0.010933 0.302411
0.276528 0.004037 0.281499
0.180545 -0.180229 -0.257893
0.188773 -0.154746 -0.301179
0.201176 -0.373704 -0.093227
0.179894 -0.376675 -0.124087
0.182462 -0.383504 -0.099572
0.163374 -0.390026 -0.084937
0.155761 -0.383822 -0.067643
-0.299509 -0.306333 -0.072075
-0.288045 -0.333174 -0.074272
-0.299721 -0.301666 -0.118348
-0.305023 -0.289372 -0.094467
-0.285231 -0.283996 -0.053473
0.184137 0.332583 0.226044
0.196615 0.308408 0.251462
0.219012 0.281453 0.241030
-0.251426 0.329415 0.165385
-0.267945 0.301459 0.242343
-0.246361 0.314360 0.276345
-0.263575 0.300018 0.265021
-0.271894 0.284179 0.277388
-0.263665 0.285785 0.296673
-0.289834 0.255117 0.291149
-0.286290 0.265993 0.272679
0.149984 0.293706 0.350514
0.135959 0.287057 0.367782
0.117013 0.308404 0.354062
0.117735 0.296858 0.367319
0.083815 0.306189 0.369515
0.098664 0.293521 0.377622
0.070259 0.278596 0.401760
0.092435 0.279381 0.395359
0.094815 0.251566 0.421455
0.104887 0.263775 0.405209
0.140327 0.269565 0.381756
0.159843 0.261286 0.377115
0.133229 0.241510 0.410085
0.126507 0.259601 0.399722
-0.069881 0.055508 0.496528
-0.067473 0.038917 0.495207
-0.099610 0.041259 0.487159
-0.083598 0.029734 0.490160
-0.103187 0.002464 0.481211
-0.084404 0.010133 0.485718
0.099582 -0.017830 -0.150276
-0.187960 -0.281442 -0.194151
-0.192271 -0.294515 -0.179770
-0.191058 -0.294701 -0.218616
-0.189331 -0.323048 -0.224580
-0.181874 -0.331547 -0.251446
-0.166406 -0.356109 -0.288822
-0.172635 -0.356860 -0.261757
-0.155261 -0.387223 -0.273568
-0.162926 -0.377707 -0.260930
-0.149665 -0.401795 -0.240669
-0.164538 -0.377977 -0.239000
-0.159523 -0.376803 -0.197726
-0.170638 -0.368628 -0.213915
0.179416 0.345084 0.196889
0.176137 0.345140 0.215691
0.154466 0.367856 0.215666
0.163038 0.356705 0.224881
0.158278 0.355931 0.242649
0.177732 0.333400 0.246016
0.183674 0.321506 0.258735
0.155386 0.345936 0.270822
0.164422 0.345554 0.252729
0.081177 -0.369711 0.095661
-0.006698 0.142744 0.486142
0.001428 0.122545 0.490115
-0.028842 0.110976 0.494416
-0.010123 0.107762 0.494743
-0.013812 0.075855 0.498181
-0.003629 0.089389 0.496698
0.085157 -0.103447 0.447712
0.067789 -0.094684 0.454365
0.029570 -0.049683 0.477111
0.037228 -0.065662 0.472600
0.028637 -0.099688 0.463791
0.000405 -0.079777 0.476168
0.023336 -0.081812 0.472068
0.105605 0.017513 0.457034
0.129734 0.017723 0.448353
0.139408 0.000199 0.440065
0.128522 -0.017866 0.442870
0.073668 0.062980 0.477490
0.077197 0.043107 0.475931
0.057439 0.034908 0.480269
0.026205 0.016961 0.484752
0.048069 0.016075 0.480877
0.043932 -0.036816 0.476292
0.039493 -0.018370 0.478089
0.056448 -0.003800 0.477626
0.095309 -0.002477 0.459209
0.108033 -0.018547 0.452931
0.076631 -0.010937 0.468950
-0.236240 0.329886 0.266506
-0.249208 0.296137 0.304469
-0.239188 0.310303 0.296767
-0.214737 0.307609 0.327208
-0.219758 0.316826 0.308907
-0.184415 0.331847 0.316090
-0.203805 0.330342 0.303713
-0.218807 0.341755 0.272457
-0.213466 0.352553 0.259139
-0.188949 0.352153 0.285867
-0.204321 0.341970 0.287573
-0.010596 -0.370165 -0.488109
0.006426 -0.353339 -0.478180
0.029547 -0.356213 -0.482394
0.053725 -0.370634 -0.480682
0.034944 -0.373980 -0.487383
-0.002531 -0.392777 -0.487587
-0.018376 -0.408285 -0.474562
0.026324 -0.401314 -0.468117
0.020799 -0.392320 -0.485532
-0.209010 -0.305536 -0.155579
-0.219121 -0.308777 -0.138569
0.056524 -0.312945 0.348034
0.037719 -0.305702 0.360310
0.059575 -0.279143 0.373964
0.040637 -0.289919 0.373700
0.026171 -0.266695 0.396417
0.023081 -0.282331 0.384209
-0.000404 -0.308099 0.373239
-0.021975 -0.313797 0.370598
-0.013569 -0.282477 0.394374
0.003076 -0.290834 0.383558
0.189432 0.017092 0.416699
0.171605 0.017574 0.427128
0.163076 0.035422 0.433134
0.176092 0.052808 0.429437
0.228189 0.034469 0.391752
0.214750 0.023883 0.401093
0.199438 0.030728 0.411998
0.196192 0.049974 0.418020
0.228125 0.054450 0.395527
0.210842 0.064052 0.408444
0.226748 0.097243 0.398130
0.209834 0.086609 0.410276
-0.081442 -0.062558 0.475212
-0.086401 -0.082528 0.470740
-0.119200 -0.074706 0.462222
-0.106357 -0.088349 0.462668
-0.135974 -0.108822 0.451679
-0.115388 -0.107137 0.456059
-0.120743 -0.141431 0.450337
-0.107265 -0.123843 0.454875
-0.082707 -0.142035 0.455510
-0.087721 -0.126069 0.457857
-0.070283 -0.095100 0.472188
-0.049460 -0.086932 0.476821
-0.072348 -0.114282 0.465275
0.279443 0.040507 0.293024
0.273892 0.029100 0.307965
0.260814 0.025788 0.343663
0.252161 0.034760 0.362566
0.269602 0.054956 0.332980
0.268798 0.036448 0.328550
0.102723 0.351167 0.311804
0.121092 0.349586 0.302468
0.144553 0.308524 0.336721
0.124966 0.329490 0.326289
0.132404 0.336193 0.311975
0.160586 0.332881 0.285545
0.175521 0.321229 0.279156
0.156310 0.314307 0.318895
0.149636 0.328333 0.305176
-0.310272 0.213265 0.318896
-0.301133 0.229629 0.313051
-0.289320 0.237170 0.327613
-0.278695 0.261138 0.308858
-0.266593 0.275530 0.309057
-0.265670 0.256614 0.341491
-0.278752 0.251990 0.325954
-0.018941 0.317942 0.367812
-0.038092 0.314312 0.370633
-0.036705 0.342288 0.342557
-0.017639 0.333535 0.352070
0.063683 0.305454 0.374580
0.056059 0.291853 0.390366
0.033694 0.291341 0.394107
0.019550 0.305176 0.379122
0.051173 0.317828 0.362405
0.029891 0.319334 0.363501
0.000077 0.341286 0.344555
-0.003499 0.355923 0.329027
0.021007 0.334927 0.348711
-0.043212 0.333563 -0.049929
-0.073422 0.340242 -0.043694
-0.056640 0.350097 -0.040016
-0.072017 0.378235 -0.012552
-0.054699 0.369787 -0.022961
-0.018777 0.373749 -0.019976
-0.038241 0.396136 0.006244
-0.037002 0.381173 -0.014296
-0.319535 0.073593 -0.008541
-0.265056 -0.360722 -0.059169
-0.249934 -0.355633 -0.051671
-0.232991 -0.368071 -0.063043
-0.193481 -0.371903 -0.079477
-0.214166 -0.354269 -0.075452
0.253263 -0.243552 -0.063563
0.238036 -0.266678 -0.057454
0.235284 -0.288711 -0.014213
0.200019 -0.292940 -0.013297
-0.234418 0.345550 0.108217
-0.223159 0.355876 0.095768
-0.238991 0.344303 0.160027
-0.240856 0.340666 0.140651
-0.231403 0.352769 0.128871
-0.217839 0.372440 0.137531
-0.225823 0.362544 0.171215
-0.214325 0.378265 0.159769
-0.193460 0.394077 0.190897
