542
-0.431773 0.032170 -0.203398
0.407417 -0.307035 0.008817
-0.313854 0.299194 0.006241
-0.422075 -0.008566 0.311710
-0.391514 0.077830 -0.061855
-0.474602 0.018788 0.377891
0.311509 -0.235326 0.063351
-0.363422 -0.003455 0.238666
-0.221795 0.339590 -0.106042
-0.391751 -0.081482 -0.059884
-0.045892 0.524198 -0.099249
0.349506 -0.087917 0.138693
0.407861 0.310028 -0.022272
0.388190 0.036174 -0.026945
0.311454 -0.308292 -0.088731
-0.399005 0.034459 -0.133184
0.467935 -0.377801 -0.047313
0.356266 0.114867 -0.070363
0.346325 -0.144588 0.064632
-0.249178 -0.388875 0.041291
0.356007 0.201139 0.008834
-0.490274 0.000277 -0.241282
0.128171 0.036818 -0.509750
0.138755 -0.047369 -0.501278
-0.199490 0.127670 0.232038
0.057965 0.140908 0.357032
0.350383 -0.235751 -0.051869
0.364442 -0.219516 0.006231
0.372970 -0.082016 -0.072860
0.367011 0.071825 0.114414
-0.404101 -0.003254 -0.059686
-0.096313 0.143629 -0.481127
-0.093115 0.438062 0.125125
-0.380619 -0.021521 0.078744
0.076903 -0.125511 0.466094
0.204654 -0.032456 0.450428
-0.039169 0.360816 0.136998
-0.336453 0.092733 -0.207829
-0.241525 0.387372 -0.065832
-0.396021 0.024319 0.014165
-0.361576 -0.002414 0.163623
-0.408520 -0.030293 -0.141112
-0.338904 -0.086265 -0.205789
0.017145 0.149559 0.241803
-0.269173 -0.368612 -0.023639
0.130373 0.110217 -0.444805
0.134496 -0.105134 -0.440608
-0.008397 0.141348 -0.240179
-0.143671 -0.132678 -0.365914
0.328205 0.212279 -0.062494
0.369826 0.100299 0.023090
0.290888 0.050688 0.313970
-0.397337 -0.032069 0.001708
0.245762 0.025346 0.399232
-0.097111 -0.478565 -0.105008
-0.317966 0.164852 -0.130047
0.010023 -0.136137 -0.350323
-0.263849 -0.152629 -0.167459
-0.016423 -0.478530 -0.128655
0.339387 -0.018025 -0.250229
-0.091830 0.129623 -0.385758
0.184941 -0.283460 0.102439
-0.380932 0.097893 0.050903
-0.379583 -0.093182 0.038876
0.368217 -0.116952 0.004431
0.002708 -0.107810 0.526334
-0.167669 0.436666 -0.093385
-0.023684 0.476194 0.127904
0.335407 0.049233 -0.240716
0.143335 -0.017342 0.505741
0.267633 -0.100696 -0.292653
0.338364 -0.154658 -0.099490
0.138632 -0.127681 0.380305
-0.208764 -0.248560 -0.140211
-0.263553 -0.310145 -0.086620
-0.151980 -0.318661 0.140471
0.380827 -0.064377 0.062345
0.298774 -0.157897 0.129868
0.138956 0.132292 0.371888
0.357999 0.023687 0.194264
-0.059226 0.277942 -0.141660
-0.093826 0.261403 0.149203
-0.271354 0.252175 -0.115503
0.351392 -0.066254 -0.170002
0.231553 -0.313890 -0.106559
-0.276778 -0.296204 0.090596
-0.285037 0.353895 -0.009520
0.024530 0.136486 0.445313
0.205656 0.099847 -0.389923
0.212509 -0.095509 -0.384807
-0.219556 0.319279 0.116945
-0.171973 0.226252 0.162172
0.299933 -0.092866 0.238361
-0.351112 -0.067576 0.143254
-0.167728 -0.469213 -0.049533
-0.080875 -0.397237 -0.138874
0.307287 0.112028 -0.204713
0.389147 0.015355 0.046785
-0.347650 0.065899 0.151144
0.240129 -0.161903 -0.200775
-0.006213 -0.137532 -0.220533
-0.062073 -0.270625 -0.140255
0.244144 0.137913 -0.232558
0.323333 0.136906 -0.124423
-0.134538 0.346762 -0.133678
-0.171868 -0.194111 0.168114
-0.589552 -0.022811 -0.308358
0.083086 -0.068724 0.528205
0.242653 -0.397177 0.110122
0.046895 0.416004 0.130311
-0.295615 -0.332494 0.027252
0.093639 -0.152900 0.282340
0.097070 0.154616 0.267413
-0.079977 0.124991 -0.278281
-0.126992 -0.123880 -0.238343
0.080256 -0.023036 -0.546943
-0.353393 -0.076089 0.314561
-0.267955 0.355920 0.052245
-0.152039 0.315027 0.139515
0.389477 -0.331252 -0.069008
0.330184 -0.009352 0.265207
0.328889 0.053270 0.252372
0.196800 0.138446 -0.307781
0.198484 -0.137266 -0.295469
-0.204195 0.258677 -0.141301
-0.393096 0.048104 0.300370
-0.222425 -0.399786 -0.073522
-0.129125 -0.204571 -0.163242
-0.065463 -0.160721 -0.186381
-0.071298 0.168099 -0.185691
0.071412 0.203930 0.158909
0.081782 -0.192352 0.157967
-0.064493 -0.132257 -0.406891
-0.063841 -0.124922 -0.291458
-0.191459 -0.132059 -0.467285
-0.126480 -0.134005 -0.479794
-0.165200 -0.071861 -0.608234
-0.114522 -0.113448 -0.563043
-0.046721 -0.098256 -0.569233
-0.012079 -0.143381 -0.452496
0.076547 -0.090820 -0.516004
0.008066 -0.119683 -0.516920
-0.261153 -0.118025 -0.519631
-0.252835 -0.073899 -0.595919
-0.308772 0.000709 -0.603859
-0.411528 -0.000435 -0.577393
-0.333813 -0.112050 -0.474440
-0.431685 -0.076171 -0.519732
-0.477463 -0.081512 -0.357219
-0.518447 -0.070754 -0.455584
-0.634944 0.002277 -0.371969
-0.586650 0.000843 -0.444583
-0.429166 0.075694 -0.517439
-0.335253 0.111806 -0.475289
-0.478611 0.085785 -0.364567
-0.512868 0.072378 -0.456331
-0.254478 0.121834 -0.512152
-0.246985 0.075732 -0.597626
-0.168038 0.132317 -0.447328
-0.150592 0.114766 -0.335468
0.025040 0.142228 -0.347418
-0.027640 0.144201 -0.422051
0.090814 -0.140823 -0.363001
0.188641 -0.057685 -0.452603
0.234643 -0.029509 -0.421482
0.266396 -0.055284 -0.366296
0.128836 -0.144567 -0.274193
0.187583 0.061591 -0.457101
0.233143 0.038269 -0.421169
0.096158 0.144462 -0.364610
0.133160 0.147373 -0.282187
0.246161 0.109667 -0.320140
0.266342 0.065280 -0.355618
0.156237 0.144727 0.287398
-0.016695 0.136238 0.364136
0.088560 0.131449 0.433938
-0.094807 0.129125 0.382170
-0.127113 0.130445 0.487976
-0.215669 0.127201 0.509510
-0.251109 0.117790 0.422750
-0.140608 0.111035 0.299996
-0.202718 0.103220 0.334858
-0.337342 0.095832 0.413301
-0.406977 0.078640 0.495865
-0.352450 0.044972 0.580220
-0.253248 0.082022 0.591040
-0.186536 -0.040155 0.628792
-0.183254 0.037358 0.628596
-0.351749 -0.045615 0.580032
-0.255852 -0.081873 0.591161
-0.219092 -0.124847 0.510751
-0.253289 -0.118709 0.418580
-0.408918 -0.081794 0.501571
-0.343516 -0.102461 0.419382
-0.199049 -0.103857 0.314444
-0.132483 -0.106935 0.297889
-0.100551 -0.127962 0.387109
-0.135135 -0.132493 0.494319
-0.108740 -0.065945 0.614945
-0.083999 -0.115129 0.558147
0.182870 0.039703 0.468044
0.200245 0.087417 0.407752
0.206331 -0.090200 0.404748
0.253613 -0.086900 0.341567
0.289121 -0.028195 0.338597
0.247808 0.086432 0.362124
-0.031268 -0.133168 0.359742
0.015723 -0.139064 0.428988
0.071655 -0.142373 0.384775
-0.009740 -0.137271 0.246952
0.042494 -0.151913 0.227944
0.153353 -0.146276 0.291418
0.308981 0.028005 -0.309223
0.303931 -0.037763 -0.313055
0.318535 -0.076155 -0.251290
0.349262 0.078165 -0.156266
0.380440 0.043256 -0.105469
0.380586 -0.019843 -0.121615
0.184664 -0.190156 0.151746
0.192565 -0.150892 0.243408
0.241890 -0.127467 0.281936
0.237192 -0.216873 0.110575
0.263724 -0.309734 0.094107
0.340722 -0.316873 0.074756
0.300759 -0.475698 0.126059
0.357597 -0.159995 -0.039509
0.400364 -0.037568 -0.006806
0.152713 -0.226851 -0.125001
0.104957 -0.171030 -0.177957
0.039609 -0.176161 -0.161139
0.015223 -0.263258 -0.128639
0.068586 -0.343624 -0.126829
0.137901 -0.322416 -0.113015
0.189200 -0.398543 -0.121174
0.196529 -0.489994 -0.131190
0.119980 -0.510426 -0.136191
0.057175 -0.445438 -0.139545
0.359777 -0.497018 -0.098395
0.273600 -0.546150 -0.104483
0.379444 -0.490631 0.102171
0.413453 -0.399363 0.077020
0.475059 -0.386246 0.010299
0.492554 -0.448418 -0.030239
0.438480 -0.516199 -0.038666
0.390174 -0.561717 0.043471
0.293351 -0.606535 0.041015
0.244873 -0.604251 -0.040560
-0.110654 -0.141174 0.202116
-0.048037 -0.166445 0.177828
-0.026153 -0.259889 0.137678
-0.069941 -0.340103 0.144612
-0.161913 -0.409001 0.119697
-0.099600 -0.460507 0.125416
-0.045889 -0.427059 0.142148
-0.081710 -0.518535 0.083719
-0.008809 -0.560995 0.088518
0.100397 -0.619282 0.030736
0.148632 -0.615808 -0.040589
0.096183 -0.569896 -0.104713
0.018768 -0.558334 -0.099180
-0.020032 -0.574307 -0.039783
0.020029 -0.591540 0.030298
-0.131681 -0.511553 0.021469
-0.092147 -0.531970 -0.043833
-0.192389 -0.141652 -0.198347
-0.203889 -0.103816 -0.296434
-0.299434 -0.096231 -0.358339
-0.363076 -0.088881 -0.309017
-0.277629 -0.227148 -0.120967
-0.321848 -0.160536 -0.129024
-0.507394 -0.050749 -0.293484
-0.417330 -0.046064 -0.211744
-0.201758 -0.424378 0.080214
-0.197546 -0.457192 0.026063
-0.231074 -0.425865 -0.018255
-0.315034 -0.296853 -0.023383
-0.483675 0.034924 0.454132
-0.480339 -0.038420 0.454562
-0.446626 -0.043786 0.360929
-0.359805 -0.182093 0.041818
-0.349843 -0.218160 -0.020554
-0.355256 -0.155627 -0.073685
-0.365378 0.086698 -0.313730
-0.298406 0.101757 -0.355063
-0.206725 0.103638 -0.285396
-0.193550 0.153393 -0.192798
-0.257263 0.169587 -0.167258
-0.586815 0.030481 -0.310405
-0.507538 0.056835 -0.295434
-0.358499 0.163055 -0.080536
-0.373070 0.034714 0.097393
-0.357759 0.179507 0.039513
-0.353565 0.217926 -0.021017
-0.027914 0.254059 0.138506
-0.043934 0.174027 0.176958
-0.117450 0.156400 0.201251
0.041282 0.512745 0.127159
-0.161769 0.396522 0.121015
-0.210952 0.411745 0.070535
-0.287719 0.313479 -0.068050
-0.187446 0.470868 0.021106
-0.206320 0.450243 -0.034294
0.016206 0.263434 -0.128313
0.039365 0.176790 -0.163603
0.107387 0.170123 -0.184822
0.148479 0.214751 -0.126842
0.134732 0.308693 -0.102332
0.066438 0.339444 -0.122006
0.052142 0.435860 -0.135589
0.115086 0.508042 -0.135995
0.200392 0.487786 -0.129474
0.202532 0.385496 -0.112296
0.016869 0.570758 -0.086542
0.090528 0.575768 -0.098948
-0.003589 0.546817 0.097214
-0.075859 0.513940 0.086927
-0.123842 0.520424 0.028961
-0.090548 0.548471 -0.030017
-0.021383 0.577568 -0.033071
0.025357 0.593541 0.037428
0.112763 0.612876 0.037285
0.150092 0.609817 -0.040029
0.336058 0.223108 0.056248
0.324584 0.150060 0.113127
0.291890 0.103236 0.244094
0.250057 0.114670 0.292595
0.195276 0.146389 0.248151
0.186300 0.189590 0.159053
0.237250 0.204394 0.124215
0.284547 0.146577 0.162052
0.339263 0.307492 0.080105
0.265009 0.297469 0.088193
0.488439 0.440905 -0.032989
0.468696 0.381443 0.027161
0.412941 0.401026 0.077019
0.386114 0.499491 0.097487
0.308835 0.610172 0.036343
0.248964 0.606030 -0.043391
0.279227 0.551729 -0.106904
0.374113 0.515169 -0.100059
0.446845 0.529927 -0.038677
0.393189 0.562755 0.039771
0.042702 -0.278035 0.124176
0.136198 -0.213910 0.124040
0.134100 0.240286 0.121366
0.025841 0.291798 0.132354
0.213659 0.192497 -0.137827
-0.131210 0.218863 -0.159754
0.120089 0.419212 0.132232
0.104248 0.501257 0.132971
0.157753 0.573852 0.099359
0.253117 0.572818 0.099679
0.290210 0.492836 0.120808
0.236014 0.386119 0.112746
0.159699 0.352981 0.111718
0.437847 0.381975 -0.068758
0.367513 0.417733 -0.104812
0.276941 0.351990 -0.094918
0.266323 0.247314 -0.088320
-0.065962 0.386414 -0.146714
-0.022198 0.450073 -0.142793
-0.106428 0.507255 -0.086358
-0.321394 0.202065 0.094929
-0.291820 0.281045 0.086858
-0.221147 -0.121111 0.226349
-0.218891 -0.276219 0.136668
-0.319495 -0.207200 0.097750
-0.141815 -0.317230 -0.136033
-0.201855 -0.346769 -0.115211
0.159413 -0.395521 0.123545
0.226748 -0.490062 0.131518
0.212778 -0.567654 0.108211
0.125198 -0.587431 0.096010
0.050767 -0.543290 0.120247
0.031755 -0.459499 0.140664
0.078376 -0.386365 0.126951
0.305270 -0.135673 -0.191283
0.213894 -0.212733 -0.138950
0.336620 -0.391526 -0.109528
-0.286760 -0.109860 0.224227
-0.313704 -0.130152 0.151558
-0.313554 0.132906 0.158106
-0.275525 0.102866 0.224261
-0.334764 0.083811 0.308406
0.382587 -0.019245 0.123577
-0.022429 0.125115 -0.511771
-0.092444 0.115898 -0.554077
-0.145868 0.069668 -0.603950
-0.115096 -0.005022 -0.620403
-0.037628 -0.033864 -0.600690
0.027565 -0.004459 -0.582361
0.058491 0.035806 -0.558710
0.059631 0.092791 -0.516624
-0.000179 0.120055 0.514897
0.068699 0.105933 0.498905
0.111311 0.047785 0.519591
0.080059 -0.004969 0.550192
0.019456 -0.038989 0.574937
-0.053465 -0.014737 0.613054
-0.094860 0.055476 0.609777
-0.070037 0.112478 0.548509
0.011713 0.052884 0.562505
-0.029189 0.057254 -0.577097
0.354018 -0.047419 0.194213
-0.330811 0.063474 0.227397
-0.327302 -0.071251 0.214551
0.289721 -0.220146 -0.112891
0.127017 -0.496790 0.128527
-0.155150 -0.410300 -0.109665
-0.254766 -0.185542 0.151430
-0.255653 0.196987 0.150084
-0.092622 0.446164 -0.124197
0.346033 0.316244 -0.073608
0.190070 0.477422 0.121771
0.277150 0.168581 -0.139275
0.091170 0.317733 0.119890
0.110795 -0.288430 0.107811
0.352565 0.584424 -0.044146
0.458024 0.479537 0.041281
0.322910 0.401674 0.102798
0.240054 0.147555 0.204117
0.292212 0.215970 0.094653
0.347070 0.147079 0.059682
0.478054 0.372518 -0.028416
0.206554 0.612968 0.037962
-0.053647 0.560975 0.036585
0.058256 0.599390 -0.034774
0.284104 0.454899 -0.121416
0.031654 0.510785 -0.134694
0.082919 0.237361 -0.118618
0.129128 0.414851 -0.133497
-0.151632 0.496223 -0.034992
-0.240924 0.414221 0.007811
-0.108927 0.360839 0.139434
-0.329096 0.253597 0.037523
-0.373912 0.142884 -0.020512
-0.368135 0.091096 -0.141240
-0.266005 0.099249 -0.245502
-0.380581 -0.141458 -0.022665
-0.326579 -0.263453 0.039503
-0.370870 -0.093118 -0.137673
-0.266666 -0.095092 -0.247329
0.058889 -0.597941 -0.039914
-0.057498 -0.557230 0.025431
-0.026747 -0.500533 0.126981
-0.215870 -0.355286 0.104872
-0.094972 -0.233258 0.150664
-0.105106 -0.394393 0.134383
0.190717 -0.616277 0.036943
0.460147 -0.475661 0.039745
0.342300 -0.574578 -0.040141
0.053620 -0.519161 -0.131306
0.262466 -0.439374 -0.123033
0.083112 -0.240838 -0.116731
0.129145 -0.420787 -0.129998
0.324489 -0.399779 0.108775
0.240324 -0.154128 0.193065
0.361352 0.009608 -0.179886
0.139081 -0.167689 0.202749
0.014075 -0.180863 0.156523
0.030609 -0.137406 0.320453
0.148538 -0.085992 0.466682
0.247278 -0.043175 0.397734
-0.043402 -0.074411 0.587002
-0.055405 -0.132146 0.467403
-0.163136 -0.114838 0.230115
-0.416358 -0.086602 0.410040
-0.308278 -0.110307 0.512076
-0.174961 -0.131139 0.408499
-0.122788 -0.004825 0.628636
-0.265461 0.000132 0.614080
-0.415836 0.079459 0.389057
-0.173129 0.125858 0.409366
-0.307294 0.109991 0.511518
0.140000 0.100519 0.457720
-0.048217 0.137532 0.463490
0.009003 0.200262 0.150977
0.138021 0.172105 0.201159
0.287616 0.083787 -0.282174
0.172571 0.162831 -0.209783
0.156667 0.133340 -0.365061
0.170429 -0.166917 -0.195825
0.188106 0.000193 -0.471929
0.153706 -0.129207 -0.359363
0.045117 0.132855 -0.439224
-0.018479 0.193419 -0.151997
-0.135156 0.129172 -0.228578
-0.035478 0.129670 -0.334216
-0.170167 0.120444 -0.542811
-0.403481 0.103225 -0.417151
-0.575719 0.061402 -0.376826
-0.573124 -0.057096 -0.375770
-0.405114 -0.103208 -0.414577
-0.340093 -0.076941 -0.560101
-0.340842 0.075744 -0.562531
0.052477 -0.133145 -0.445789
0.020839 -0.069162 -0.564084
-0.095134 -0.070327 -0.601986
-0.186535 -0.119200 -0.543342
-0.017534 -0.189401 -0.149361
-0.058206 -0.134857 -0.503388
-0.499058 -0.000779 -0.514917
-0.208629 -0.000130 -0.618207
-0.264246 0.093534 0.321461
-0.157967 0.103625 0.574068
-0.273074 -0.095596 0.317029
-0.165644 -0.102275 0.575879
-0.005181 -0.368507 -0.131480
0.305529 -0.545890 0.104916
0.432624 -0.423297 -0.084043
0.001521 -0.361053 0.132854
0.056591 -0.587728 0.082912
-0.046877 -0.530857 -0.093690
-0.419656 -0.065296 -0.272905
-0.344717 -0.136427 0.094388
-0.416850 0.072820 -0.276405
-0.344647 0.135358 0.103480
-0.002135 0.361208 -0.134342
0.202006 0.279485 -0.092835
0.071224 0.565596 0.098733
0.329593 0.088907 0.183506
0.196877 0.273082 0.098805
0.330973 0.560050 0.095242
0.438171 0.461948 -0.086392
0.392089 0.303305 0.037711
0.183228 0.570069 -0.105045
-0.149128 0.470942 0.080679
-0.318849 0.234913 -0.071085
-0.319513 -0.235943 -0.077792
-0.152117 -0.471150 0.078515
0.183603 -0.568302 -0.101178
0.390694 -0.003951 -0.066982
0.200164 -0.129198 0.333492
-0.070247 -0.119586 0.272551
-0.432142 -0.000400 0.528062
-0.062737 0.126044 0.270027
0.200874 0.123127 0.335647
0.278769 0.001562 -0.371637
0.067548 0.146185 -0.260531
-0.233692 0.117569 -0.400878
-0.235997 -0.119824 -0.409743
0.061227 -0.143018 -0.255700
