1496
102.307999 78.760101 19.758499
55.472698 48.184898 20.930700
-38.727402 -76.004204 20.237700
25.959499 -38.914398 19.821899
-36.080101 -56.939899 20.358601
-19.330900 -87.026398 20.534500
-40.217201 -24.771601 20.522699
71.040398 91.196198 21.666300
73.708504 92.192902 20.198799
53.761799 41.364101 20.255600
73.796402 77.434998 19.551901
77.694603 93.572197 19.684601
99.251297 83.778397 20.037500
30.326799 -47.941299 21.169600
55.855999 41.438801 21.602699
54.111698 13.473200 20.892700
30.446699 -39.476002 20.576300
87.990997 94.639198 18.521700
53.231300 -18.700100 21.410700
83.540604 94.465302 19.766399
-41.327702 -17.521099 18.161200
56.497101 12.120400 20.464399
98.090797 75.646004 19.712799
52.628502 -90.823700 18.464701
51.998501 -89.473297 18.676100
62.344898 43.925701 20.761200
26.604099 -58.117401 20.750299
37.917500 -65.215897 20.334499
43.291901 -80.958603 19.279100
-30.898899 -85.128998 19.716600
-16.851101 -59.768700 19.008101
27.754499 -70.292900 19.895901
-36.436600 -40.741600 20.304300
-25.044100 -75.247498 19.291901
54.871601 28.036301 20.973200
79.589203 81.445999 19.878700
53.447601 27.783001 20.597401
53.985699 35.437901 20.621401
11.140400 6.134820 18.174200
-19.321400 -84.881599 20.306999
-37.680599 -64.148499 18.625200
52.733799 17.052999 20.708300
-39.795799 -31.948700 19.366699
57.086601 28.862900 21.030800
96.377701 93.012901 20.740999
53.002602 45.788700 18.575300
31.912001 -87.829002 18.544001
6.784200 -35.109001 19.529200
102.833000 76.724800 19.947901
27.388000 -61.799198 20.088200
27.768900 -67.485901 19.497101
55.313202 21.389299 20.827999
60.024101 72.743500 20.030001
-40.482700 -21.117901 19.681900
69.881699 89.533798 19.865299
52.444401 31.300800 19.891800
-36.173801 -83.523499 19.586300
60.823299 75.996902 19.926100
-19.920799 -87.167198 19.800100
53.133598 22.516399 20.654699
57.503101 10.511200 20.084900
1.040170 -35.522999 16.301701
68.615097 57.025902 17.994400
66.735497 49.872501 17.786900
57.760101 25.826000 20.863600
50.567501 18.142200 20.160900
65.033401 45.381500 18.402700
-41.898602 -3.805700 19.093500
82.963898 81.356003 20.714100
26.701200 6.724760 16.134800
57.539600 61.825401 17.428499
57.573700 62.154701 19.443300
30.702700 -84.035400 19.678301
57.016300 18.592600 20.448500
-16.431499 7.133260 17.645800
-42.260700 -15.314600 17.421200
-23.861500 -77.228203 17.511000
-24.511200 5.949240 18.162901
-33.887001 -44.388302 20.480499
59.448898 23.661400 20.028099
-26.298901 -86.071800 18.891300
31.306999 -56.923500 20.039900
48.343601 -33.092400 18.974199
19.196699 7.631750 17.547501
45.665298 11.553800 19.689800
29.148399 -56.952900 20.154900
84.794197 83.515602 18.803900
100.224998 75.593399 19.248600
37.334999 -68.647797 18.809200
75.242798 90.436798 17.735001
30.962799 -38.081600 19.118401
66.183403 86.092499 19.747299
70.262001 64.191704 19.051800
52.400101 42.638500 18.157600
-30.871500 -47.571999 19.386000
97.832298 87.306503 19.971001
-12.811300 -35.238499 16.875401
-11.504500 -32.563499 18.324499
71.116501 68.061798 19.246201
59.913799 18.772699 19.132299
57.308701 -13.209800 17.614300
52.094898 35.313702 19.068199
43.890499 -34.191002 19.170000
77.246002 83.153198 16.328899
37.719700 9.808530 17.815901
58.613899 -4.447780 17.366100
75.782303 79.423798 19.848600
63.144901 80.055702 18.738600
33.616699 7.805090 17.960600
72.530701 71.849602 19.247200
63.356899 40.726898 19.332899
5.694250 7.737180 16.055700
19.165001 -40.513901 16.541599
-31.988501 -41.749599 18.974800
-13.861600 -52.546902 19.621300
80.999603 84.498596 17.268499
-36.241600 -60.839600 18.858000
65.410500 83.579697 18.521299
17.624800 -40.261101 17.603500
-38.797100 -71.433296 18.373301
40.856998 12.284700 17.212900
-39.375099 -75.639198 19.147301
60.939098 30.429199 19.722401
50.638699 26.920401 18.987000
35.153599 -36.488800 19.668100
33.634201 -63.209999 19.122801
55.898701 54.349602 19.226400
-42.751999 -11.303400 18.511200
-44.000401 -5.983590 17.798901
-37.545601 -37.451199 19.314800
-39.472099 -80.405502 18.484301
91.783798 93.990196 16.786301
93.552101 93.413803 16.895700
71.005898 87.958397 17.704901
-18.751200 -86.370796 17.724701
60.808998 15.604400 17.978600
60.056900 11.008400 18.199301
60.543301 72.697800 18.434299
-39.737000 -21.945801 16.021900
55.988602 -9.931740 20.629299
42.192600 -78.176498 19.043600
-2.190050 5.213000 18.458599
20.696301 -39.215401 19.282400
53.906502 48.376499 18.634701
-8.702730 6.366380 17.524000
72.858002 74.742203 19.408001
29.693899 -65.673500 18.538000
52.439602 -91.870003 17.692699
61.333698 22.714100 18.526899
48.599602 19.161800 19.036600
28.555901 -37.807301 18.014999
97.517601 84.963203 18.508400
-20.070601 -81.925499 18.350500
58.745899 66.992996 17.695000
-28.689800 5.597370 17.231899
30.028000 -61.763802 19.284401
101.255997 77.052002 18.715099
-28.960199 -51.148800 17.852501
29.023500 -73.443901 18.806801
45.031300 -85.512497 16.337500
12.133600 -37.804901 16.559099
33.628799 -68.190498 18.028099
59.736500 1.246490 17.391300
56.994400 -16.875000 16.384501
-7.848720 -32.287800 18.667601
-38.009602 -67.867302 18.364599
24.046700 -38.254200 18.163401
83.448097 85.905602 16.886999
95.049004 91.930099 17.304300
62.119801 34.368500 19.339399
38.381500 -35.909599 19.779499
-39.612000 2.365400 15.460800
-14.308600 -53.265099 18.523500
50.127602 32.903900 17.061300
29.666100 -78.634300 19.027300
14.306900 -38.441898 18.423800
51.304401 -89.370499 13.966000
31.331100 -81.964302 17.495001
-32.034500 -84.526100 17.348101
100.960999 78.798500 18.175800
-21.141500 -79.249001 17.259501
-20.233900 -70.025597 16.886200
63.020599 31.189400 17.647900
-12.215500 -45.095901 17.765900
91.118401 81.054497 16.489901
-31.736900 -38.460300 18.034700
-38.704300 -83.105301 18.015499
101.094002 80.030800 18.812099
51.510101 40.702301 17.024200
-8.158470 8.487190 14.384900
44.381302 14.825500 17.683201
16.989799 7.827000 16.301500
60.742901 8.043310 17.236799
-36.534698 -35.965000 17.653200
-36.393002 -83.905701 18.359501
30.386200 -69.319099 18.210699
72.417503 72.737000 17.871700
-40.161900 0.410501 17.546200
-29.931299 -38.746201 16.888599
-39.409100 -30.938601 16.199900
70.436798 65.717598 17.559000
41.654999 -34.561600 17.425301
26.154900 -38.290001 17.235399
70.995499 69.299400 17.501400
46.235001 20.698000 16.562000
-16.045500 -58.558998 17.978201
-39.597900 -77.827698 17.669701
72.810204 77.313797 17.524200
-37.669201 -34.029598 16.829201
69.403099 59.751999 17.299200
-17.131100 -60.714100 17.621799
63.984100 76.405701 16.239599
31.525200 -77.806602 17.151199
50.328899 -92.586601 16.706301
-33.024700 -57.029999 17.495199
-44.803799 -10.456300 16.639601
56.570702 -20.080999 14.722700
40.037800 -75.935799 18.210501
96.062103 86.990097 17.980400
-27.624399 -52.573898 16.524401
-39.856499 -26.666500 17.074400
-26.917400 -49.293201 16.444500
-27.699301 -48.035702 16.604601
-18.306299 -86.143303 16.298300
42.015598 -82.778603 16.689899
50.643600 -30.786900 15.463300
-45.617199 -1.440330 14.522300
86.076599 85.270798 16.001400
37.130699 -92.198700 15.564400
34.814800 -36.411400 18.019100
-1.221520 7.173070 16.077299
-46.935699 -8.049670 15.558800
-18.030399 -63.659599 16.990101
-15.267700 -52.552601 17.243200
32.830299 -88.487503 16.865299
48.387798 28.983500 15.958200
52.442200 -23.591101 19.386600
30.946600 -37.322102 17.163000
56.332901 57.101398 18.000700
-20.948900 7.827060 15.560500
-31.140200 -56.359299 16.163900
-27.563801 -43.475899 15.325900
84.509300 90.614700 16.348101
-12.567200 -48.584000 17.250900
48.239300 -32.293201 15.961200
96.727699 82.769203 16.394600
36.633099 -76.764198 16.752501
62.178101 73.488297 16.394300
62.832401 25.518600 17.069401
63.110401 15.549400 14.808600
40.033100 -80.226196 16.771799
45.971401 -32.817699 16.578899
38.201500 -80.327400 16.207701
68.664398 84.702599 16.961000
34.835400 -72.892899 17.121599
61.315899 69.945099 16.082399
6.056150 -37.119701 14.477700
66.306198 45.197102 16.236300
64.904503 33.461700 15.165200
60.004002 63.897400 15.205200
64.896004 38.566299 16.878000
-5.496400 -34.712399 15.112900
-21.246000 -75.140602 15.243900
52.441898 45.797001 16.799500
30.793600 -37.612598 15.935400
33.767200 -91.949699 18.020700
74.829201 80.722099 16.915899
95.841499 78.979897 16.832199
-11.839400 -39.924702 16.449200
-18.790199 -59.823601 14.871300
-29.974300 -37.313301 16.131599
-19.341999 -83.994003 16.796600
-36.615501 -83.469002 14.604700
88.098801 92.065399 16.516701
-21.315500 -85.832100 15.298300
-34.612400 -64.200203 15.802000
56.785301 56.496601 16.161600
54.868900 51.487801 17.170799
-31.724600 6.452840 13.585800
-12.280500 -45.171501 16.364401
44.826900 22.271900 14.357700
80.457901 90.907097 17.072100
-17.321301 -54.139599 16.185900
33.267502 -86.046898 15.841800
74.291397 87.857399 16.694201
67.467598 50.457699 16.396999
-46.714100 -4.675750 15.315900
42.526199 17.351299 14.584900
-13.210900 -48.514400 16.711700
31.275999 -73.254097 17.311899
33.912800 -76.685799 16.627300
62.326099 -3.324640 11.221700
69.893097 73.099602 15.728700
23.033701 -39.902802 14.089400
-35.329899 -34.927299 15.302900
-41.602100 -18.332300 15.172300
-38.203899 -32.388302 14.343800
-29.563499 -58.306900 13.508400
71.498199 77.220596 16.295900
92.411797 81.623703 15.410300
93.711601 85.309601 15.705600
-36.928799 4.785580 13.563700
67.257896 79.735397 15.673000
-19.222200 -68.155800 15.959700
51.578201 -26.846600 15.161100
-18.693399 -57.137600 14.885100
39.731400 -83.386299 15.328300
-21.185499 -77.293198 15.615900
52.630699 -91.502602 15.378600
78.306198 86.296600 16.325500
51.981899 43.070499 15.074100
-32.869900 -84.280098 13.077200
-19.430599 -62.849998 13.352900
91.656097 89.216499 15.970300
68.195702 55.697701 15.578100
84.030701 87.789299 16.015200
81.363800 88.007202 16.271400
-11.845500 -42.252102 15.691500
33.991798 -81.235298 16.021099
-40.358700 -20.504900 15.190700
-17.977900 -82.280502 15.255400
-38.018600 -82.464401 14.530500
30.485901 9.446690 14.229500
-40.462101 -26.489599 15.613600
73.383102 81.349503 15.997900
67.811203 57.203400 15.010100
70.733704 83.355003 15.836400
69.209099 66.581902 16.085400
66.072403 75.560898 15.141200
55.683601 51.651901 15.606900
53.384899 46.970501 14.683200
-20.242599 -50.248299 15.347000
51.962399 -92.392097 14.126600
-9.805350 -35.996899 14.355800
65.564301 37.502701 14.555200
58.774799 59.934700 15.079600
-17.456800 8.980830 13.924700
89.113899 89.649300 15.564700
63.445301 67.145203 14.356000
-45.002899 0.955020 12.922400
-24.342899 -51.501598 15.683300
38.653500 14.703200 13.311100
-35.393200 -70.198502 14.661200
87.802696 85.681999 14.405900
63.885101 24.217300 14.842900
-39.951900 -80.360001 16.738501
36.281898 -84.841797 14.851500
-18.892799 -79.900497 15.135300
51.134899 40.433899 14.700300
-20.683201 -54.433601 15.068300
-13.656200 -44.058800 15.310600
-47.665199 -13.295100 14.137400
-10.640400 -38.319698 14.677500
17.842800 -40.778900 14.191700
42.253201 -91.413902 13.621400
47.090900 26.839899 14.856700
35.912998 -90.181999 14.082800
-27.258400 -38.555599 14.706300
61.502399 -10.288200 10.148600
-20.035999 -46.021500 14.319800
67.864799 66.777199 15.120700
-11.367700 -39.041901 14.656600
42.829700 -85.849701 14.351300
69.200996 76.911797 15.263600
-24.872999 -85.391502 12.993700
71.214203 80.603996 15.580800
-32.868301 -60.303902 15.269200
88.191597 87.334900 14.203300
-43.555500 -15.431100 15.434800
-25.331499 -53.843601 15.303900
46.400799 -87.164398 14.104000
12.354500 -39.308899 11.777700
-32.465599 -64.185303 13.045600
-20.326401 -72.470703 14.830500
47.451698 -91.948097 13.565800
38.423000 -91.472298 13.247100
-21.039200 -75.830803 14.364200
-20.950800 -52.544899 15.548700
65.751404 41.199001 15.007400
54.536201 46.953899 13.191000
-37.616001 -78.605904 13.982400
51.730701 -89.671402 13.448200
-24.399599 -42.881802 13.486000
-25.015900 8.308600 12.976300
-7.875340 -37.571098 12.493200
64.391800 72.272499 14.842600
-22.409300 -46.396801 14.310500
-15.753200 -84.817398 14.094700
-12.394300 -40.082199 14.478900
49.274200 -31.975901 11.861800
-27.417601 -59.221699 12.262800
65.593002 45.103001 13.786300
62.803501 3.352790 12.703800
52.994999 -26.420700 11.740800
-53.702499 -7.184630 11.271700
50.779301 38.524700 15.061400
66.902000 70.890800 14.582700
65.972397 66.383400 14.348400
48.236900 30.654800 13.054700
-42.678200 -27.810801 13.683000
-39.770401 -30.025700 14.704400
18.932301 -41.407200 12.829400
-32.425201 -68.455498 11.502200
7.564150 -38.320599 10.692300
64.871201 40.355598 13.011100
52.882000 -92.334099 13.319300
-16.881001 -85.728699 14.330000
8.945160 8.811040 14.720800
-13.279800 9.744930 11.765600
-42.399601 -19.429701 14.240500
41.785702 18.102501 12.780300
38.426998 -88.432602 13.282400
-22.771000 -57.837898 13.185400
39.555199 -36.578800 12.311900
65.084297 52.691502 13.012100
64.395401 26.036699 12.801800
-18.756500 -79.884003 13.760200
64.794701 30.807400 13.638200
-4.053740 -35.968102 12.756500
59.411201 50.716301 12.404400
1.851150 8.896000 13.433100
61.046001 58.519699 13.259700
-36.377300 -73.074501 14.336100
-36.098099 -33.379101 12.867500
49.555500 34.105400 14.846900
-29.221901 -33.899101 9.497140
44.168400 -91.267502 12.317300
-21.506399 -69.761803 12.107900
28.010500 10.363900 12.109700
-40.789799 -30.290501 13.392500
52.717201 42.809799 13.199500
41.728298 -87.806000 12.965300
-31.102400 -61.322800 12.760300
-52.278000 -12.375000 12.376100
-41.944801 3.371760 12.085900
57.411499 51.845600 14.030000
47.138802 27.799000 12.843300
30.738800 -38.282700 12.411200
-33.587502 -70.976997 11.156400
62.865799 8.287430 13.941800
-27.402000 -36.074001 12.325800
-41.855400 -25.381001 14.618300
-14.657800 -85.449303 12.487000
56.716400 -22.242599 10.401100
-36.421501 -82.974800 11.859800
19.689699 10.436100 13.276200
-39.636398 -31.316999 11.456000
26.419600 -39.585499 13.467100
62.917099 61.918201 13.463600
61.283798 61.843201 13.843300
-20.760000 -77.587097 13.886700
51.089401 37.745701 13.098400
-9.338620 -37.320801 12.926000
-19.780701 -66.335800 13.595000
-22.069799 -74.164200 11.545000
-18.999201 -40.019798 12.507600
-52.308300 -9.181420 12.594400
-23.493000 -38.535702 12.239500
-15.461700 -40.126400 13.786000
-21.889999 -60.725201 12.522500
-15.937500 -82.474800 13.253300
46.642300 -88.165604 12.837800
-5.965740 -36.263699 12.707200
-50.289501 -2.741780 11.653300
-50.242001 -17.790100 11.951100
-35.338001 -80.852798 8.881200
44.807499 23.128401 12.696500
-15.090900 -85.957001 11.769400
50.012199 33.789700 12.478900
65.119904 58.487999 13.302600
64.193604 21.969900 13.333700
-5.906970 9.872060 10.629900
66.103600 49.874699 13.885800
-13.514500 -38.920502 12.713700
-49.457699 -21.908600 11.853300
-35.183701 -75.544197 10.448100
59.662498 -17.463699 9.336140
63.768002 47.014099 12.156800
56.501701 46.621601 11.623300
15.501700 9.543220 12.864400
59.922901 56.046700 13.409100
45.704800 24.648100 11.935900
-52.617500 -15.235700 11.787300
52.672798 -29.221399 10.277800
54.668701 42.807598 11.015000
64.020798 16.272400 12.011300
-10.803600 -38.043800 11.673400
-45.405102 -29.725201 11.565700
60.744400 -14.887100 9.236980
22.664900 -40.581402 11.093100
63.441299 56.768002 12.670800
-17.850800 -82.155197 10.280200
52.649200 37.911598 10.918000
-39.647499 5.532420 9.166760
38.552898 15.287100 10.499100
46.541199 -90.706596 11.475000
-21.730700 -36.643799 9.906660
49.732399 -90.357498 11.472200
41.811401 -90.108299 12.127400
50.793400 -91.472603 11.523000
62.471100 50.730999 12.079100
-44.286201 -30.346001 10.910200
62.786301 39.389099 10.751300
-17.799400 -37.905201 10.675200
18.198500 10.871800 10.715400
-55.986599 -12.345100 10.809900
-30.102400 -65.205704 11.267600
-34.799000 -83.584000 10.445500
62.242500 45.693401 11.131200
16.303301 -41.494900 10.008600
64.219101 32.133598 12.011500
32.512402 -37.857498 9.845390
43.979900 -34.706100 10.160200
22.993200 9.682460 12.777300
-20.960600 -79.418297 10.766500
-48.795502 -30.677799 10.014200
62.814701 34.101101 10.417700
-20.952101 -39.265701 11.896400
41.775101 18.223301 11.593400
47.771801 -32.969700 8.926030
-46.862598 2.167200 8.846530
26.471701 -39.728199 10.684800
-49.838799 -0.426014 9.754070
-22.767900 -70.413498 11.008000
30.790300 11.202500 11.413400
-23.368299 -65.311302 11.067500
34.377899 12.299300 12.322300
49.315300 29.346399 10.605900
-14.325000 10.691200 8.573130
-16.435101 -84.720200 10.394400
-21.117300 10.174700 8.393050
-22.932501 -85.252098 10.013900
63.280701 5.547550 11.236100
29.028999 11.306200 8.249750
-3.172620 -37.377998 7.244650
-25.225201 -61.119999 11.418300
53.180901 31.915001 8.547330
52.755798 34.751801 9.813910
47.094299 23.494900 9.103270
53.471500 -26.302999 8.057430
63.292999 0.612125 10.114300
-34.307098 7.503250 7.711940
-12.938200 -37.712399 9.714810
43.070099 18.681299 9.508150
-52.744202 -28.649700 8.988760
3.850910 10.559700 9.540080
42.042099 -35.419998 8.091270
54.979599 39.045502 9.524060
-54.138100 -5.194800 9.664990
-36.913300 -32.069401 9.718160
-8.115520 -37.995399 9.398000
-57.628799 -17.267500 10.420700
61.209900 40.815300 10.049300
-30.507401 -70.097298 9.937450
-25.491600 -68.004997 10.226500
-17.989700 -85.351799 9.531620
-53.945702 -21.841400 10.583800
17.684999 -41.708599 8.722450
58.950802 44.870899 10.410300
63.752602 22.055901 11.016900
57.445999 41.863400 9.658270
-25.859600 -84.294403 7.391380
-2.162010 -37.025002 7.692850
63.101799 8.509340 9.418770
60.520699 36.331799 9.155140
-25.612499 -33.337799 7.887160
-58.588600 -12.741500 9.637570
-35.145599 -82.792099 9.145300
-44.336800 4.483660 6.447030
-21.224701 -34.893799 7.473910
18.030701 -41.199501 5.142260
-10.336800 -38.228500 7.879310
-14.686200 -36.202702 7.372440
-17.325199 -36.240501 8.350130
61.357601 32.340000 8.892480
62.744701 25.468201 9.662240
-33.997898 -78.203201 8.373210
-27.417900 -66.036102 10.485900
-22.898899 -76.972198 9.648920
-37.699200 -31.597799 7.407340
39.552101 15.481100 8.776700
62.339401 16.813801 7.847260
-54.919399 -3.330150 6.675820
38.448399 -36.365299 6.544020
11.799500 -39.715099 7.506550
-28.607800 -72.252403 8.840010
63.030399 4.721340 9.620840
-59.008598 -21.501400 9.479290
-42.426300 -30.748100 10.124700
63.295700 14.191000 9.350750
-32.253101 8.104140 6.890190
-16.679399 -84.597603 8.738620
-60.638500 -12.587200 7.956440
61.738201 -9.506120 8.112810
-25.066900 -75.535599 8.720710
58.128300 37.320202 8.721270
20.443100 11.341200 7.998400
16.300100 10.802500 9.269920
62.870899 -2.451830 9.206220
-51.373299 -0.370591 7.180680
61.400101 24.104601 7.990470
-63.118198 -21.945700 7.938060
-22.749100 -78.154800 7.944780
49.549400 23.163500 6.978030
-50.912201 -32.628300 8.544440
32.917000 12.122400 9.127980
-41.761902 -31.072100 7.226030
8.050940 10.733700 9.680640
23.647499 11.018400 8.768690
56.170399 37.525700 8.806830
57.984798 -20.816099 7.927490
-1.256470 10.384700 8.979830
53.088799 -26.746201 5.175000
-60.803501 -17.687500 9.056920
52.139500 -30.063400 9.221170
-15.947100 -35.188801 6.381910
46.051800 16.541000 5.053470
-63.671398 -17.326099 6.779240
-47.064899 -31.900499 7.633460
-5.480050 -39.086800 5.082730
-9.016210 10.422100 7.940390
-58.100700 -8.190870 7.595260
61.797199 4.975240 6.963770
-17.662300 -82.047096 6.666010
-27.302601 -74.758400 8.157610
61.539501 -0.731884 5.151170
-58.659000 -25.879601 8.825820
34.913700 12.769000 8.306830
26.173800 -39.098701 4.548150
59.535400 30.618999 7.723070
-31.331499 -33.023998 7.346310
-16.744900 -85.601402 7.033010
-62.023399 -32.763699 6.933260
-29.325399 -76.824203 7.127150
-56.844299 -34.057701 7.283630
-60.105301 -31.570499 7.625750
11.905800 10.489500 7.442250
-39.109200 6.661200 5.012220
56.334599 -22.598600 5.669290
7.475210 10.284900 7.480980
-48.328701 2.407260 5.837300
-32.141899 -81.930496 5.876290
37.137001 12.841700 6.684080
-26.066799 -77.188904 6.930460
43.704800 17.149799 7.250600
-0.484009 9.922180 7.122570
-16.101000 -84.802101 6.102060
-21.185900 -84.793900 4.932880
-52.559200 -33.948200 7.695330
-32.568199 -76.347198 8.188860
-14.582000 10.603800 7.135810
61.438599 -5.853050 5.320910
10.634600 -39.527699 3.068470
-17.678101 10.427800 6.947340
32.143700 -37.422199 6.367430
-51.141300 -33.818001 6.634460
-31.320400 -82.873596 6.216860
55.527100 32.256802 7.733550
52.075401 27.844601 7.674960
15.222900 -40.911900 3.565320
2.278380 -38.273399 1.787990
-23.160299 9.917120 6.760660
-25.265100 -33.089901 7.089310
60.426800 11.768400 5.443360
60.116100 26.324800 7.364790
-64.533997 -29.165400 6.352430
60.265701 21.386600 6.529980
57.663399 28.621901 6.949950
-62.079800 -11.563700 5.389880
-55.047401 -35.836201 6.564410
-61.892101 -37.540001 6.541300
53.391102 -25.065901 2.110610
55.498600 28.022900 6.711050
18.479500 9.895480 3.587740
-52.897301 -0.781024 4.395940
41.204201 13.512400 5.097230
52.275200 -29.341200 5.541080
0.182265 8.164250 3.543660
52.836399 24.860300 6.163790
60.430698 4.634190 4.857400
-66.311996 -27.611500 5.201370
-21.037001 -34.236599 5.958200
-64.724297 -38.656601 5.733950
30.569500 10.727700 5.744460
59.284000 -16.455700 2.603250
-44.783401 -32.427898 4.208070
6.893450 7.394560 2.351350
-29.319799 -80.493500 4.998440
59.808300 -13.119000 1.986730
-59.710201 -8.055210 5.196120
-6.247190 6.630640 -0.265204
21.009701 10.778400 5.426810
-65.732697 -33.740501 4.907470
-32.490398 -33.230202 1.980920
-58.926201 -38.020100 6.208550
-31.231400 7.859400 5.059240
-34.564602 7.927410 5.859260
57.373100 22.022600 5.255560
59.731300 19.080700 5.540510
-25.084600 -33.515598 2.207550
-36.503502 7.133610 5.700630
13.976800 9.679510 4.326740
20.259199 9.297800 0.916372
-66.864700 -24.791500 4.338720
-57.919201 -5.533390 4.170030
52.358002 21.772200 5.036240
56.158100 24.566500 5.759610
-17.436800 -83.277496 5.207500
-50.121601 -34.530602 2.819590
38.748600 -35.131500 2.968120
-16.314100 -35.399300 0.931322
-65.093002 -43.741199 5.531490
29.258499 -37.583401 3.420340
-25.702000 -82.985603 4.096670
-21.403900 -80.375504 5.138870
-43.131100 5.118520 3.900870
-54.236801 -36.830299 5.219920
-67.424599 -32.944199 3.594190
-62.558399 -43.853001 5.350040
44.242100 -32.522598 1.897070
-55.666100 -3.121320 3.513940
-25.702299 -79.979301 4.622860
58.353901 14.800500 3.974380
-18.122200 -34.576099 4.160760
34.504200 10.171400 3.579450
-64.342598 -14.260100 3.488380
-27.530199 7.594140 2.408920
-67.422600 -41.970600 4.414080
-19.075199 -84.544800 4.557720
-41.553101 -31.942600 2.763510
-39.502399 -32.212200 1.189420
33.842400 -35.407700 1.568270
-20.682501 -82.289398 4.042080
-28.764900 -82.293503 4.502990
-7.828560 -38.725800 1.540920
-23.309401 8.052020 2.258000
-65.361603 -49.275501 5.143660
-67.947601 -53.446201 5.092800
-57.327301 -40.777599 3.142460
-65.178596 -51.383701 4.613030
-67.152199 -54.814999 4.639840
56.876099 -20.521400 0.626964
57.486401 18.062300 4.125640
54.097900 20.742300 4.451020
-69.958504 -49.652500 3.811880
-58.390999 -40.270000 4.994580
-60.480000 -7.929500 2.913160
42.242500 12.069900 3.247510
-61.470100 -44.908699 4.391360
47.032200 -31.690599 3.311140
38.666401 10.608600 2.640070
-70.132202 -57.274300 4.355150
-72.820801 -57.333698 3.239820
-31.945801 6.416890 2.034370
-50.004799 1.203990 3.101660
-25.868401 -81.459297 3.979440
-39.556801 4.577810 0.194121
-67.230598 -21.681900 2.947390
59.021599 12.152600 3.935790
-23.010300 -83.434502 3.753860
-70.770599 -61.621399 3.352350
54.373901 16.195801 2.902050
-69.251503 -31.719700 1.620490
-12.206900 -37.850300 3.303490
57.107899 7.028560 1.655740
59.293301 -8.188400 0.452858
-67.317398 -19.706499 1.310750
28.549400 -37.702202 1.848110
-70.950203 -38.961399 0.911930
-21.557199 -34.164501 1.879240
58.886398 -3.100880 0.355174
29.609699 8.610540 0.907630
-46.853298 3.022610 2.729460
-68.088699 -58.285099 3.260340
-60.932201 -45.549099 2.982090
-53.498600 -37.004299 3.336440
-64.548302 -13.477800 0.516729
-72.669098 -61.453899 3.423390
59.247898 0.492711 2.040010
13.205800 7.577850 0.774894
-64.533203 -52.306702 2.887080
48.007599 13.031100 1.836870
-73.405296 -54.181198 2.205320
49.997398 16.919500 3.426740
56.000599 12.967800 2.332310
-14.307000 8.005440 1.679160
-56.711700 -40.715000 1.120670
-3.832350 -39.246300 2.467930
-73.234100 -65.075600 2.676190
-75.371300 -64.987198 2.284300
-55.076099 -2.833830 1.978520
51.220699 -29.129999 2.334150
-59.849899 -7.240370 1.445900
16.387400 -40.703899 0.313888
20.621700 -39.939201 0.728832
30.968500 -36.126400 1.137790
-1.738550 -39.449902 -0.107381
45.604198 10.070700 0.372758
-69.535004 -61.359501 2.317690
-42.522900 -32.324799 0.245376
-12.541400 -37.098999 -1.967820
-73.850098 -43.083199 -1.014170
-77.399498 -65.264801 1.153250
-53.331799 -36.791401 0.887203
55.645302 10.905200 1.705880
-60.923599 -46.699600 0.358855
11.662000 4.104170 -3.506700
-42.290001 3.398860 -0.885651
-77.361298 -59.587002 -0.064235
37.543499 -35.554001 0.834758
-69.226997 -25.791401 0.535812
58.465401 -11.721600 -1.388190
0.546031 -38.378201 1.123240
40.463402 -34.430599 1.342930
-66.522499 -56.939499 -0.217235
-49.166401 -0.564724 -2.213890
50.363701 11.096000 0.624291
-16.479099 6.838540 -1.846450
23.353901 -38.515400 -1.361230
25.908701 7.610470 -1.564540
44.895901 -32.210800 -0.844098
-75.334396 -67.669197 1.691960
55.932201 2.651670 -0.500221
13.131700 -39.852200 0.557599
-66.479897 -17.713800 -1.903100
-73.747101 -67.383797 1.077810
54.046398 -22.669500 -2.018590
58.036098 -16.644800 -1.158100
52.505901 12.851600 1.445390
-70.719704 -63.610298 -0.127056
40.708199 7.102510 -2.376800
53.770699 4.715510 -1.400640
5.790620 -38.846901 0.635832
3.690770 4.675290 -2.041060
34.337002 -36.460999 -0.263648
-71.762703 -35.942501 -0.692571
-32.867802 4.806400 -3.578510
-63.067402 -50.404099 0.551659
-74.056099 -50.008301 0.191323
-76.515602 -70.831299 -1.091250
-18.193100 -34.467300 -2.641270
-67.869301 -20.422199 -1.568100
33.035301 -35.371700 0.509508
36.798199 7.322950 -1.672420
-77.122200 -70.519402 -0.238853
-80.151199 -65.827103 0.012222
-81.491501 -69.933601 -0.550713
19.460400 7.849420 -2.062630
29.426901 -38.542999 -0.555219
-72.900002 -67.085297 -0.984139
-53.416000 -36.001598 -2.667400
51.775799 8.409460 -0.730729
39.920399 -35.617901 -0.433518
-71.033302 -31.195200 -0.932215
-69.547897 -25.557301 -1.697800
-49.097000 -34.234402 -1.701570
56.667000 -4.323560 -2.742750
-33.540600 -32.869099 -0.323879
48.818802 -29.943899 -3.194040
-76.681000 -54.365898 -1.414220
-20.425400 6.968610 -3.009730
-85.542801 -69.491699 -1.193290
-36.329899 2.444790 -8.456560
-75.580002 -48.770802 -1.940650
25.842899 -38.842098 -1.651700
-58.260899 -7.749810 -2.913960
-62.448700 -49.025700 -5.355400
-25.531099 6.519200 -3.241270
-62.733002 -13.317800 -3.963800
6.395750 -38.602001 -1.067780
39.083900 -39.436001 -3.100340
-42.334301 0.420201 -7.944660
46.039001 7.538140 -1.897830
-33.577301 -32.069698 -3.816820
-73.165298 -39.697102 -1.836050
17.262100 -39.982101 -1.241550
-79.575699 -63.051601 -0.767431
-83.437302 -66.442497 -1.374550
-53.169399 -35.829300 -5.119260
-49.521400 -33.853802 -5.484060
-79.019302 -59.036400 -2.089610
53.975800 -3.488790 -5.353530
-81.948196 -63.860600 -2.570710
51.910801 4.283300 -2.770540
-11.125400 4.596380 -5.957080
-44.105900 -32.676899 -3.613680
50.526402 -27.066200 -3.111180
47.718899 -31.076799 -1.660960
43.055000 -34.891899 -3.629800
-4.260400 3.331720 -5.601870
6.916550 2.472260 -5.336790
31.883101 -40.853500 -3.041790
32.045700 5.457150 -5.313970
55.053398 -17.677799 -5.515260
28.523399 -40.013802 -2.418460
33.466301 -44.743500 -5.371180
38.417000 -42.109901 -4.402860
-83.355400 -71.828003 -2.776990
-72.382301 -36.855301 -2.506010
-25.205099 -32.635601 -2.613980
19.139799 -37.089802 -5.816880
18.809999 6.252330 -4.343080
-87.091301 -68.995399 -1.575650
-0.163400 -37.127998 -3.627860
-71.459297 -33.182301 -2.679690
48.878101 5.099770 -3.501240
-91.259003 -71.203499 -1.811780
-91.320099 -69.533997 -2.469210
-75.671799 -69.749298 -3.410050
-4.160040 -38.108501 -3.456700
-100.902000 -71.510399 -1.619890
-95.399498 -71.622002 -1.769190
-98.324402 -72.149803 -1.814450
-87.264603 -71.418098 -2.083160
-17.978201 -33.727402 -6.076400
-75.748001 -48.641899 -3.410210
-93.449402 -72.531502 -2.260190
-83.993202 -65.951401 -2.573800
-76.489899 -52.718399 -2.434860
-96.731499 -70.052803 -2.560400
-101.464996 -70.230301 -2.608770
53.000401 -0.723518 -4.906500
40.654301 -36.949902 -2.510940
-55.954899 -38.630402 -6.418870
-80.833702 -61.930000 -3.332550
1.277070 -37.988098 -1.748860
-102.861000 -71.365799 -2.166990
22.681299 -38.036301 -3.298150
-77.786697 -71.712502 -3.232950
54.828800 -19.838100 -4.529620
-102.804001 -71.481598 -2.315920
-58.927101 -43.618401 0.493890
-26.612400 -31.323200 -6.472640
37.019798 4.809190 -5.978810
-29.271400 -32.077499 -4.122750
-97.693100 -73.419701 -3.286090
-3.924680 -37.357899 -4.867850
-21.505199 -32.853298 -5.527610
-56.794201 -7.776220 -4.977260
9.611060 1.737730 -6.225540
-103.177002 -71.205704 -2.676240
-103.163002 -71.339996 -2.403120
50.979099 -25.512300 -6.122030
-71.603699 -65.055603 -4.152230
-87.228203 -67.829697 -2.514260
-73.512497 -40.973598 -3.286170
-102.956001 -70.556503 -3.818690
-78.528397 -57.685398 -3.731020
-89.345100 -72.593903 -3.367600
-65.624298 -18.416000 -4.605050
24.298000 -39.124500 -4.042630
-33.315399 -32.759499 -5.838030
-29.756201 -32.080101 -5.576530
-69.703201 -30.096001 -4.974840
45.650799 -34.281898 -5.803430
-80.604599 -72.354500 -3.108260
40.964401 -40.582199 -5.258610
-6.367480 -36.638599 -6.630460
-12.579900 -36.360401 -5.184380
-92.042099 -69.013298 -3.826420
-102.980003 -71.305397 -2.695650
-45.311600 -1.058910 -7.268430
42.560501 4.312300 -5.587380
-100.170998 -72.796997 -4.248030
27.429199 5.103650 -4.989910
-15.079600 5.867410 -4.129030
-68.123100 -23.885401 -4.419770
-70.463799 -33.356602 -5.128720
29.307199 -41.978100 -4.181230
-86.998100 -67.468903 -4.817690
-80.686203 -72.536301 -4.676960
24.480400 3.453420 -6.702230
-76.224197 -53.002602 -4.792900
44.302601 2.314980 -7.052800
-36.467899 -31.647900 -4.036870
-39.003502 -31.312300 -4.043940
-97.093903 -73.434303 -4.651270
-17.534201 4.767880 -7.915560
12.807700 1.945300 -6.457780
-102.778000 -70.740501 -3.957790
-83.446404 -72.148598 -4.828290
-22.674700 6.168030 -5.514250
55.474300 -13.236700 -5.598990
54.086800 -8.333710 -6.985050
-94.442398 -69.518700 -4.524920
-14.867300 -35.413502 -5.565440
11.732200 -37.306599 -4.472530
-77.847298 -69.612000 -6.038470
24.249399 -40.777100 -5.852650
-63.387798 -16.020300 -5.389320
-90.399803 -73.018700 -4.675230
-99.564697 -72.024399 -5.511660
47.030300 -32.859100 -6.177600
-73.109200 -41.872299 -4.713720
-76.736900 -56.539799 -6.617590
-67.494499 -26.356300 -6.212210
17.070400 -37.381302 -5.558710
-29.403900 3.946310 -8.676770
4.587220 -35.340000 -6.692950
-14.087000 3.483510 -8.193830
-72.125999 -42.488201 -6.033190
-60.098202 -44.809601 -6.723820
-64.206596 -19.106300 -6.349750
48.655998 -0.088094 -7.156840
16.519699 3.515280 -6.210570
-91.345001 -72.842102 -5.691210
27.900499 -44.231998 -6.254120
30.780399 4.110350 -7.035920
-92.072098 -69.288498 -5.760850
38.826900 3.078270 -7.950480
52.410500 -22.769600 -7.251840
-43.280998 -33.376598 -6.683790
20.655899 -37.461102 -6.922080
-69.991302 -43.307999 -7.231060
-47.285599 -33.389400 -7.142530
-97.525299 -70.385498 -5.255960
-86.160698 -72.006500 -5.661990
37.611900 -44.995098 -5.996180
-22.811701 -30.776699 -9.315990
22.206100 -39.377998 -6.475290
-95.290703 -71.819702 -6.358090
39.659698 -44.360699 -7.004600
-84.164001 -70.741898 -6.694220
-64.279099 -22.203501 -7.313650
-55.174500 -9.239360 -7.530190
33.961601 -47.623402 -6.174770
-52.501499 -35.030300 -6.462830
45.661800 -34.545200 -7.761200
-73.986000 -46.417999 -5.624670
-52.154400 -5.962920 -7.079090
-39.042500 -32.530701 -5.888390
-72.732300 -66.029404 -5.239490
-36.301899 -33.776501 -6.621490
-69.519096 -36.539902 -6.424250
-67.977699 -58.655201 -5.745290
-58.790798 -12.178200 -6.943890
-89.221100 -69.086800 -7.009820
53.207600 -12.115700 -9.221910
19.709900 3.416480 -7.269040
52.275700 -18.338800 -10.636800
26.860300 -58.396999 -5.960080
-91.964104 -70.316498 -6.873690
28.915800 -61.656601 -6.261090
-62.812901 -48.792000 -6.797760
-67.136002 -55.444801 -7.601800
-76.696098 -58.100101 -7.613710
43.823200 -37.834000 -7.645980
-89.345001 -70.758797 -7.071340
-11.655400 -34.595299 -9.113930
29.920500 -51.184200 -6.518910
24.728001 -59.577400 -6.365420
27.640900 -65.233498 -6.570490
48.428699 -3.219990 -9.820800
-55.884499 -37.769501 -7.781500
33.358299 -51.222301 -6.880970
13.392600 -34.720901 -8.127100
-73.841003 -52.686001 -7.613350
47.536301 -28.664200 -8.603490
-69.659103 -61.098801 -6.045260
2.270540 0.911325 -7.903760
26.346500 -50.255600 -6.544930
-83.583397 -66.161499 -7.037360
-65.386597 -53.635799 -6.559470
23.575899 -54.422199 -6.761360
24.059799 -44.137798 -7.011330
-67.620697 -40.263802 -7.436070
-70.018303 -58.940102 -7.828730
20.913799 -38.813900 -8.368880
25.284201 -63.861198 -6.744690
-81.041496 -68.875397 -7.634070
-80.151398 -62.236801 -6.393050
22.860300 -47.612400 -7.102940
22.276300 -62.605000 -7.678810
50.901901 -7.028390 -9.909670
48.876999 -25.731400 -11.126500
-30.576401 -33.152901 -7.372790
23.127001 -66.209801 -7.529530
25.170401 -68.541603 -6.918620
-85.468300 -67.562599 -7.453920
35.812199 -50.948399 -7.829110
-62.715302 -46.411800 -7.964640
-71.717003 -46.992298 -7.477570
28.096800 -72.419701 -7.264210
21.232300 -42.335300 -8.145350
-66.833099 -30.146799 -7.199370
-53.618599 -33.628799 -8.197100
-14.836600 -33.021702 -10.235500
-75.953499 -67.913101 -7.070350
18.245600 -35.486900 -8.328620
32.329300 -56.966400 -6.879470
-47.691601 -4.247810 -8.960760
29.137300 1.720240 -8.769600
34.078899 -57.308899 -7.730200
-8.653450 -35.705399 -7.470360
-40.453602 -35.055698 -8.054790
-35.479900 -36.130501 -8.524680
27.088600 -0.090061 -9.363560
-65.035599 -32.723099 -7.922930
-59.447800 -17.034401 -8.176040
22.110701 -58.569199 -7.453550
-79.550797 -63.583698 -7.951920
-58.932201 -41.948101 -8.038010
-27.564800 -32.374401 -8.565790
37.081299 -50.093800 -8.564220
-5.957130 -0.092721 -10.755000
29.138300 -75.817001 -8.104640
-64.472298 -36.938599 -7.888690
8.373980 -0.969913 -9.225130
20.274700 -41.978901 -8.826120
-53.905499 -11.556900 -9.319180
26.134300 -74.503601 -7.603730
24.951000 -75.786301 -8.198250
-72.826202 -63.384899 -7.465200
-65.689102 -51.885300 -8.083360
20.374300 -55.428001 -8.662360
32.982700 -66.035698 -8.442570
35.242599 -60.025799 -9.286530
51.573898 -11.651700 -11.226300
-63.650200 -27.003799 -8.177070
41.920898 -42.113701 -7.978970
-84.534897 -68.715500 -7.585400
-38.711102 -38.764400 -10.064600
-37.486500 -36.771198 -8.671640
-67.826500 -46.519199 -7.972820
-49.734699 -8.547180 -10.818000
45.019600 -33.322399 -11.476300
12.129900 -2.563880 -10.154500
-17.034700 -31.603201 -11.071100
21.169201 -65.560600 -8.830420
30.615999 -74.523804 -8.632760
30.753401 -64.957603 -7.155220
-54.591202 -35.659199 -7.841240
-6.041990 -34.030499 -8.641230
-74.768997 -62.084702 -8.364320
-76.543900 -65.723396 -8.253510
43.164299 -39.222801 -11.206100
19.599001 -59.046398 -9.478910
18.862900 -52.790298 -9.718750
-32.772301 -35.924599 -9.210720
43.085701 -1.129250 -10.910300
-64.382004 -46.862999 -8.243590
-47.078098 -34.217201 -9.707900
-57.161701 -27.582800 -8.277520
-51.448700 -23.786699 -7.997090
-51.198399 -26.197399 -7.973030
-50.195000 -25.229601 -8.345030
20.861799 -49.597698 -8.044790
-75.922096 -59.350300 -8.206140
20.615400 -37.206699 -8.709310
-77.932999 -64.405502 -8.453450
-24.487801 -31.172199 -10.605800
-71.473701 -50.084000 -8.181360
21.868200 -72.998199 -9.425710
22.115499 -69.770897 -8.456130
-53.187199 -28.885401 -8.139340
-72.055099 -58.217098 -8.466630
-61.737801 -43.319099 -8.385170
29.650200 -80.357697 -8.770660
37.267399 -53.166199 -10.704000
20.314800 -0.468475 -10.044300
-49.768600 -23.485901 -8.529840
19.569700 -35.403099 -9.265710
-66.515099 -50.385601 -8.365460
-1.763590 -34.636299 -7.450840
-51.243500 -32.572498 -8.265890
-72.340897 -54.801899 -8.503540
-42.639400 -36.345798 -9.948740
-55.597099 -20.100800 -9.175890
-59.716099 -32.610802 -8.234130
-61.142101 -25.772499 -8.564560
-56.383701 -37.118000 -8.636620
15.874300 -1.363280 -9.625640
27.885000 -82.413498 -8.875290
-23.058399 3.093320 -11.413200
21.291300 -35.701199 -11.409600
36.307201 -55.287601 -9.763690
-2.579960 -30.683901 -11.799800
-50.278599 -32.446602 -9.498780
-69.142899 -53.984001 -8.563870
24.629400 -80.246597 -9.065560
36.761200 -87.765701 -8.573280
35.757198 -85.964798 -8.423690
33.857899 -87.532799 -8.545860
-51.459400 -29.699800 -8.812250
-58.773201 -39.494202 -8.561650
19.400200 -46.373901 -9.240810
32.712700 -71.513802 -9.401030
26.855301 -79.652397 -8.222590
31.104300 -84.554703 -8.599550
39.691898 -87.048599 -8.907690
22.346800 -76.003304 -10.034100
35.174900 -64.433998 -10.233700
43.824299 -38.821800 -9.344970
-51.257301 -18.670900 -9.521880
32.814602 -82.549400 -9.352790
-31.096600 1.725190 -12.088400
14.183100 -32.355099 -10.437200
-52.542000 -12.803900 -10.120100
18.591900 -49.170700 -9.936990
18.936300 -50.372200 -9.977370
-9.914970 -31.909000 -10.588400
29.704700 -86.410797 -9.170290
-49.731899 -19.265600 -10.164000
19.318100 -43.550499 -9.262230
-57.826801 -18.056299 -8.875670
38.874500 -49.309399 -10.811300
3.992310 -2.755950 -11.556800
-18.296400 0.861195 -13.508400
39.706600 -1.270590 -11.875900
35.477200 -82.491501 -10.540300
-12.330400 0.985587 -10.623600
25.306601 -3.297220 -11.043300
26.965700 -86.347801 -10.290800
31.746901 -1.459890 -11.455100
-29.524599 -35.174999 -10.677000
30.349100 -87.349297 -10.980000
41.565399 -86.684998 -10.040200
32.158699 -78.791801 -10.197000
18.958099 -66.892502 -11.712400
18.614401 -59.815701 -10.927100
35.453899 1.825830 -9.698510
38.240799 -83.972198 -10.537100
-49.362202 -27.352699 -11.360000
41.915001 -43.616699 -10.336400
22.326099 -79.928703 -10.981800
-19.254499 -30.307699 -12.268600
18.133801 -30.846901 -12.087400
39.407600 -86.985100 -11.576800
34.053600 -72.007500 -10.968100
33.087200 -80.374496 -10.527700
-50.601002 -30.707800 -10.180800
-39.712101 -40.327801 -11.547100
-50.057400 -32.879200 -10.930700
18.899200 -69.835899 -12.669300
32.717602 -75.524200 -10.616900
-3.000740 -1.770460 -12.109100
-35.621101 -41.445599 -11.852800
-44.173801 -39.053600 -13.013200
18.664499 -47.432098 -11.743300
-6.838090 -30.154499 -12.306900
35.760300 -60.944698 -10.457400
18.167500 -62.741199 -11.636600
27.597000 -5.284040 -11.859400
-47.442699 -35.610100 -11.582200
24.672600 -86.121696 -11.609900
-25.246799 0.545591 -14.879400
20.096399 -40.639198 -10.534300
-48.454300 -19.341801 -13.531900
18.554899 -55.506599 -10.839500
6.743760 -31.611900 -11.312000
16.327700 -4.355820 -11.384000
-43.046600 -3.557400 -13.622200
20.735800 -3.981600 -11.894200
-23.724300 -31.254999 -15.427600
41.038502 -85.241798 -11.114200
49.988098 -16.633499 -13.665200
-51.113602 -15.118200 -10.542700
-26.585600 -33.812401 -12.943100
19.845100 -43.403198 -11.970700
27.429701 -87.421997 -12.486200
-13.607100 -31.914499 -11.251000
43.766602 -5.224940 -13.300700
19.583000 -50.995098 -13.265600
40.237099 -46.526100 -11.433600
35.201500 -70.970497 -13.157300
19.726000 -32.557201 -11.618100
35.706299 -1.390540 -12.068600
-21.477600 -29.684000 -13.012000
34.459999 -78.076202 -13.348700
21.563801 -37.544102 -12.562900
9.917270 -29.631901 -12.453000
-50.265999 -33.444000 -12.589100
1.464600 -6.634490 -15.043800
41.740501 -42.953701 -11.780600
-13.882400 -1.478600 -13.196000
27.195999 -87.119904 -13.677700
20.358900 -74.487099 -11.838200
14.762000 -29.660200 -12.210900
18.708900 -56.439201 -13.053100
15.567200 -8.809200 -13.209800
35.539600 -79.972000 -13.266500
50.446800 -19.253201 -13.091000
42.673000 -37.007500 -13.552400
-11.951200 -28.496201 -13.024600
-31.355200 -1.264230 -15.665700
-48.511002 -15.308300 -13.626200
34.513199 -87.094002 -13.785900
-49.998600 -12.263600 -11.779900
41.764301 -84.328102 -13.889500
46.691101 -10.172700 -14.339100
23.506399 -86.050598 -13.587900
21.626499 -85.273003 -14.759700
-41.326000 -42.074902 -12.977300
48.690201 -22.020201 -14.694900
-52.415001 -73.948097 -11.667600
-54.243599 -75.165100 -11.709600
-50.414600 -74.663300 -12.070700
37.124401 -54.766300 -12.712600
-9.229500 -3.318590 -14.179600
-57.665600 -72.185097 -12.014100
30.230700 -87.250504 -13.682100
-3.065130 -4.144930 -14.175400
34.362701 -75.412201 -13.133500
-47.222801 -8.247910 -13.859300
-30.883301 -38.911701 -12.711800
-59.505798 -73.649399 -12.102500
-46.343399 -51.848598 -11.997600
-51.236198 -52.755001 -12.077300
-58.526199 -75.083298 -12.657100
42.889599 -86.083504 -13.978100
-49.128502 -75.331497 -12.115000
-39.898102 -1.303120 -12.681100
-54.073799 -75.507401 -12.584300
19.754101 -76.939697 -13.696200
19.670799 -75.049698 -14.311500
-46.852699 -48.125599 -11.972700
-52.211102 -71.189102 -12.465400
-54.806000 -69.747803 -12.802600
-49.615101 -48.682598 -12.291100
21.389500 -31.553699 -12.932000
4.083110 -28.566200 -13.755200
-35.675098 -43.925400 -13.741400
39.763901 -39.449402 -15.976400
22.895500 -33.890400 -13.810400
-49.578300 -56.079201 -12.450500
-61.101002 -70.314697 -12.696000
-43.633801 -44.421001 -12.936000
46.043900 -29.937799 -14.003400
-47.631699 -37.305801 -13.169600
-46.430599 -74.206902 -13.017200
-52.811501 -56.456902 -12.252300
-40.449402 -46.038700 -13.053900
-54.235001 -54.149502 -12.608000
38.286098 -49.794201 -12.825900
-51.505199 -75.294800 -13.536000
26.323799 -8.760070 -13.024700
-43.706600 -49.616402 -12.079800
23.287001 -37.687801 -14.798300
-37.673302 -43.375301 -12.922400
-47.790501 -75.742996 -12.914700
-48.933498 -73.099197 -12.283200
17.194500 -26.209400 -13.495100
-56.470798 -66.803902 -13.107900
37.398399 -80.193802 -14.974400
-16.441700 -25.035000 -14.450000
14.106700 -7.025050 -12.548100
-55.148899 -46.545799 -15.043900
36.120998 -64.006897 -12.698600
10.476100 -26.572901 -13.827500
13.401700 -24.009701 -14.317800
19.936399 -27.102501 -13.491200
20.827200 -10.405200 -14.217200
-53.584599 -60.526100 -13.061100
19.660900 -47.321301 -13.697900
52.160400 -20.889200 -9.701290
-45.006699 -54.885101 -13.527700
-38.341099 -47.401901 -13.987200
19.216400 -72.389297 -13.718600
48.884800 -11.250800 -13.379100
-22.064501 -0.355741 -15.758600
18.964300 -61.113602 -14.421200
42.867699 -34.707600 -15.917600
-42.551498 -52.392700 -13.735500
-48.531898 -70.517197 -16.302999
-50.674500 -70.080002 -14.336000
-51.477699 -68.396004 -15.906500
34.869202 -77.590500 -15.482000
38.758598 -44.650002 -14.274500
37.105400 -9.369870 -15.795800
-60.054699 -66.656502 -13.026100
-48.918900 -32.304600 -16.101700
-47.964100 -12.581000 -14.625600
-41.370899 -43.871601 -12.961300
-55.318901 -60.355701 -12.861200
-56.672001 -59.016602 -13.219900
25.402700 -11.857500 -14.132700
-50.702499 -61.323502 -14.524500
-46.248001 -57.134701 -14.450700
-49.039200 -71.064301 -13.938500
-54.477402 -66.605003 -13.984200
-51.966000 -61.052700 -13.635600
-40.131401 -50.395699 -14.143500
-64.645500 -72.279999 -14.491100
-62.336899 -66.680496 -13.849100
-57.128799 -49.355499 -15.311800
20.907400 -43.682701 -13.673300
-18.965099 -22.990999 -15.141300
-47.145000 -39.556999 -13.838100
-30.939899 -42.207001 -15.820300
-27.671301 -37.351799 -15.444700
-61.738899 -55.242199 -15.977600
-53.397400 -67.484802 -14.590100
-20.995600 -26.523800 -14.017100
36.033401 -54.968102 -14.833300
39.558300 -7.933810 -15.342500
43.228401 -85.920601 -14.705600
-46.438702 -41.713501 -13.887400
47.514099 -17.538500 -15.658800
-50.369598 -40.781601 -14.966500
25.898100 -29.278099 -15.106600
35.077000 -70.360802 -15.133300
-55.386101 -75.367302 -15.857200
23.981600 -27.923000 -14.316100
-50.164501 -36.203300 -14.277600
47.797199 -24.920700 -15.017600
-49.725201 -38.730000 -14.984000
-40.274502 -3.434390 -14.981800
-19.925400 -3.282250 -17.101400
36.526100 -59.395100 -13.213300
35.908199 -64.353500 -14.245600
5.882440 -8.835340 -15.479500
-23.094299 -30.635201 -14.626000
19.728500 -55.399601 -14.889800
-22.052799 -27.001699 -14.653400
-53.554600 -42.691601 -15.273000
-62.501400 -74.633400 -14.301800
16.955000 -12.601100 -14.400300
-14.454800 -4.508080 -15.192200
25.872000 -14.364700 -14.901700
43.958401 -31.504499 -16.419201
31.126600 -10.309200 -15.307000
-36.981998 -47.630901 -14.898300
-64.630203 -61.811600 -16.349501
-4.448200 -27.320499 -14.482800
19.131599 -21.320999 -14.444900
-60.084202 -52.609600 -15.884800
-52.556499 -65.863899 -15.563500
0.459795 -9.319880 -16.653000
9.307140 -10.710500 -15.563800
14.532600 -20.414301 -14.806100
22.849001 -43.379002 -15.048300
43.312901 -8.213620 -14.864100
-50.225300 -75.199303 -18.743999
34.692402 -63.201500 -16.679001
20.934099 -47.419800 -14.742100
23.312201 -21.421200 -14.727500
-65.290802 -73.673897 -15.358900
21.272301 -51.970798 -15.532300
35.438099 -48.378201 -15.275900
-1.395230 -24.308500 -16.279800
-11.173600 -23.986500 -15.879000
22.391800 -15.918900 -14.576900
13.890600 -13.447000 -14.944100
-46.573399 -58.949001 -16.592300
17.915199 -17.401100 -14.711700
41.031700 -82.068703 -15.746400
-60.037399 -75.312202 -17.695499
-46.101501 -11.827200 -16.713600
-50.014099 -37.573601 -16.196199
-56.699200 -47.437302 -15.268400
-43.547100 -7.534360 -16.600100
-15.798300 -21.265699 -16.066299
-33.769501 -45.302601 -16.173800
-53.441601 -75.295898 -18.322500
14.542100 -16.567101 -15.042100
-46.072300 -72.333801 -15.901000
-63.651001 -57.632301 -16.774799
28.757900 -25.588400 -15.948000
20.565800 -78.125397 -16.398199
-25.174700 -33.969501 -17.064899
31.098301 -14.806600 -16.741699
18.884701 -67.626701 -13.749100
-44.526501 -75.169296 -15.766700
-65.690300 -74.659599 -17.548300
-66.486397 -72.222000 -15.976600
-20.734200 -22.469900 -16.401100
-40.408600 -52.590801 -16.129200
34.462700 -66.874298 -16.686100
26.364599 -86.490898 -17.476999
26.410801 -20.047199 -15.379500
42.758099 -83.803200 -16.093700
43.893799 -86.008698 -15.214800
-47.643600 -28.055799 -18.804501
33.252899 -47.589901 -16.498501
35.786800 -86.526398 -21.198000
20.629999 -80.530998 -14.860000
-16.454000 -6.360630 -16.503099
21.633101 -56.147400 -16.791300
33.945702 -53.463501 -16.780300
44.867500 -86.189301 -15.843700
40.418400 -85.870003 -18.476801
25.908899 -34.050598 -15.828100
-25.043699 -1.614530 -17.048000
20.846100 -62.192501 -16.894300
-49.267899 -62.435600 -17.498600
-46.578098 -16.088600 -17.360901
-18.761101 -19.920300 -16.196301
8.693800 -14.636400 -16.513700
33.463501 -50.664700 -16.451500
34.893299 -74.921204 -15.268200
-13.356900 -7.805870 -16.552500
24.203300 -49.913300 -16.461800
-47.922798 -23.569901 -16.722601
-67.399200 -64.149002 -17.551600
44.537498 -85.502098 -15.451100
43.983700 -85.646896 -15.852800
