2496
69.3 46.8 1.4212
69 47.7 2.6528
67.8 42.6 2.1064
68.7 46.8 2.0144
68.4 47.1 2.7327
68.7 46.5 1.7149
67.8 47.1 3.2458
67.5 46.2 2.9701
68.1 45.6 1.6431
67.2 45.6 2.72689
67.5 45 1.7792
68.1 41.4 3.557
67.5 42.3 2.4593
67.5 42.9 2.00011
66.9 42.9 1.9357
67.5 42 3.02503
67.2 44.7 1.8505
66.6 45.6 3.38
66.9 44.4 1.9096
66.3 44.7 2.951
66.6 44.1 1.9573
65.7 44.7 3.4758
65.7 43.2 1.9859
66.6 42.6 2.2074
66 42.9 1.9075
65.7 42.6 2.2702
65.1 44.4 3.6142
64.5 43.5 3.3222
65.1 42.9 2.2048
65.7 42.9 1.9476
64.5 46.8 2.99588
63 46.2 2.5856
61.8 47.4 1.2284
60.6 46.2 1.48129
61.5 43.2 3.41999
60.6 47.1 0.9844
69 45.9 1.375
68.1 45 1.5212
68.1 44.4 1.63723
67.5 44.7 1.645
66.9 43.8 1.716
66.6 43.8 1.8029
64.2 44.4 3.69322
64.2 44.1 3.7217
64.8 45.3 3.62626
64.2 45.6 3.40113
65.1 44.7 3.6922
63.3 42.3 3.0254
63.3 43.2 3.5995
63.6 44.7 3.52658
63 43.5 3.6905
62.4 42.9 3.6073
62.7 42.3 3.2079
62.4 42 3.1948
62.4 42.6 3.45295
61.5 42.9 3.538
61.8 42 3.2897
61.5 42.3 3.44489
62.4 41.7 3.3911
61.5 41.4 3.4249
61.2 41.7 3.2697
61.2 42.6 3.5233
60.9 41.7 3.2972
59.4 42 3.29169
60 41.4 3.2846
60 41.1 3.2689
59.1 41.7 3.29716
59.4 40.8 3.2767
68.7 40.8 3.2655
68.1 47.7 3.2479
67.5 48 3.26606
67.5 47.4 3.3814
66.9 46.2 3.432
66.3 47.1 3.3913
66 46.2 3.55635
65.4 46.8 3.30686
66.3 45.9 3.5826
65.7 45.3 3.6534
66 45 3.4582
64.8 42.9 2.4171
69 50.4 1.8951
69 50.1 2.4262
68.7 50.7 1.0886
68.4 50.7 1.0088
67.8 49.8 2.15712
67.5 50.4 1.2172
64.2 57.3 1.2254
63.6 57.3 1.4215
62.7 56.7 1.3248
61.8 55.8 1.0235
60.6 56.7 2.59856
60.9 54.9 0.8355
60 55.5 1.86023
59.7 56.7 2.8167
65.4 57.6 1.3662
66.3 55.5 1.80943
65.4 51.9 1.90979
64.5 50.4 1.73952
65.4 49.8 1.5096
65.1 53.1 1.8332
63 53.1 1.29292
65.1 57.9 1.3994
63.3 56.4 1.0076
61.8 54.3 0.871242
62.1 55.5 0.8215
61.2 54.6 0.7156
60.6 54.6 0.7903
59.7 53.4 0.5956
59.7 54 0.8138
59.4 53.4 0.6235
69.3 54.9 1.74632
69.3 53.4 1.4121
69.3 56.4 1.8892
69.6 54.3 1.5288
69.3 52.5 0.904817
69 51 0.6876
68.7 53.4 1.6786
69 51.3 0.4858
67.8 54.6 1.97309
68.1 54.3 1.93719
69 52.8 1.3712
68.4 51.3 0.9032
68.4 51 0.8108
68.1 52.8 1.73385
68.1 51.9 1.43024
67.5 50.7 1.1776
66 53.1 1.95757
66.6 52.2 1.90907
66.6 51 1.65499
66.3 50.1 1.4261
65.7 51.3 1.8617
65.4 50.1 1.61518
60.6 57.9 3.5729
60.9 57.6 3.26857
60 57.3 3.206
59.7 57.6 3.2554
69.3 49.8 2.7866
69 49.5 2.9127
68.4 49.2 2.9862
52.7667 59.4 2.65186
53.2333 60 2.91212
53 59.7 2.77878
60.0333 62.245 3.88422
59.7667 61.945 3.88568
59.5 62.245 3.90423
59.2333 62.545 3.93708
92.855 58.3667 -1.44141
93.155 58.6333 -1.51768
92.7 58.8 -1.0195
92.6333 58.1 -1.36455
92.3667 57.8333 -1.28983
91.8 58.8 -0.4997
91.5 58.5 -0.454597
91.8 59.1 -0.4897
90.9 59.1 -0.0881
91.2 58.5 -0.2476
90.6 58.5 0.0357
90.3 58.8 0.0961
90 57.9 0.072
89.4 58.2 0.182748
89.1 59.4 -0.122716
88.5 59.7 -0.2808
88.2 58.5 0.1197
87.3 59.4 -0.1889
87.6 58.5 0.081411
86.1 59.1 -0.1612
85.5 59.1 -0.2529
85.5 58.2 0.003293
84.9 58.8 -0.2038
84.3 59.255 -0.909184
84 59.1 -0.875985
84 58.5 -0.2474
83.7 58.955 -0.845155
84 57.6 0.004274
83.7 58.5 -0.410671
83.4 58.7667 -0.807699
83.1 58.6 -0.770203
83.7 58.2 -0.1596
82.8 58.4 -0.737728
73.5 58.5 -0.318715
73.6333 58.8 -0.23853
72 58.2 1.03374
72 60.3 2.54691
72.9 60.3 2.1145
90.5667 55.8 -0.033938
90.3 55.8 -0.649129
90.4 55.5 0.29455
90 55.8 -0.6289
90 55.2 -0.449343
90.3 57 -0.6016
90.3 56.4 -0.7716
90 57.3 -0.253414
88.8 56.4 0.094238
90.3 55.2333 0.645982
90.145 55 1.01683
88.8 57.3 0.153552
89.4 55.2 -0.3434
88.8 54.9 0.2074
89.4 55.8 -0.3916
89.1 55.5 -0.181
88.8 55.2 0.0605
89.1 55.8 -0.136454
88.5 55.5 0.298584
87.6 57.6 0.204837
86.1 56.1 0.239084
84.3 55.8 0.165065
83.4 56.7 0.065965
82.8 57.3 -0.044051
82.2 53.7 0.353163
81.3 56.4 -0.004831
80.1 55.2 0.215281
83.7 55.5 0.166099
80.1 56.4667 -0.540263
79.8 56.255 -0.538283
79.5 56.0333 -0.534204
79.2 55.8 -0.526963
79.2 54.9 0.1892
78.9 55.5667 -0.51904
78.3 55.0667 -0.519376
78.9 54.3 0.3829
78.6 55.3333 -0.514395
78.3 54.3 0.1948
77.7 54.5333 -0.549421
78 54 0.247
78 54.8 -0.530645
77.4 54.3 -0.576052
77.4 53.4 0.3626
76.8 53.4 -0.0508
77.1 52.8 0.561
77.1 54.1333 -0.610798
76.8333 53.845 -0.65696
76.5 52.2 0.6327
76.345 53.545 -0.785213
75.3 52.2 -0.0197
75.6 51.6 0.457606
75.6 53.7 -0.9203
74.7 53.1 0.2266
74.7 54.3 0.0029
73.8 51.6 0.642828
74.4 55.2 -0.3932
74.1 54.3 0.061837
74.4 51 0.3871
73.5 54.9 -0.2091
72.9 54.6 -0.1063
73.2667 57.9 -0.476592
73.345 58.2 -0.397206
73.1333 57.6 -0.555764
73.055 57.3 -0.629799
72.6 53.4 0.164983
72 56.7 0.024567
71.7 52.8 0.121365
71.1 51.6 0.3262
71.4 54 -0.097984
70.8 54 0.0122
82.5 57.6 -0.259663
81.6 57.5667 -0.611734
82.2 57.9667 -0.668774
81.9 57.7667 -0.639734
76.045 53.845 -0.85845
76.1 54.6 -1.01399
76.055 54.8667 -1.02768
75.9 54.6 -1.17669
76.045 54.3333 -0.972196
76.055 55.355 -1.02747
76.055 55.655 -1.03451
75.755 55.655 -1.00836
75.3 55.5 -0.816688
76.055 55.1 -1.03421
75.9 54.9 -1.1301
76.045 54.1333 -0.922364
75.6 54 -0.9438
75.3 54.6 -0.617072
75.5 55.655 -0.977368
75.2667 55.655 -0.940242
75 55.655 -0.905262
75 55.2 -0.4955
74.7 55.6333 -0.879443
74.4 55.6 -0.863846
74.1 55.5667 -0.857978
73.8 55.5667 -0.85751
73.5 55.2 -0.534491
73.5333 55.6 -0.860288
73.3 55.645 -0.862426
73.045 55.645 -0.859843
72.6 54.9 -0.393303
72.745 55.945 -0.850253
72.6 55.5 -0.890886
72.9333 57 -0.697553
72.745 56.4333 -0.800297
72.9 56.7 -0.756821
72.6 56.7 -0.662643
72.745 56.2 -0.832385
72.3 56.4 -0.5357
72.3 55.8 -0.8152
72 55.2 -0.5627
72 55.8 -0.5389
81.3 57.3333 -0.588672
81 57.1333 -0.567842
80.7 56.9333 -0.555639
80.4 56.7 -0.547027
76.6 53.545 -0.714838
82.5 58.2 -0.701296
92.1 57.5667 -1.11609
91.8 57.3 -1.03649
91.5333 57 -0.935595
90.9 56.7 -0.888
91.2667 56.7 -0.787361
91.0333 56.4 -0.586742
90.745 56.1 -0.331076
84 51.6 1.8652
83.7 52.2 1.3173
81.6 51 1.27797
82.5 52.8 0.684348
81.3 52.5 0.526037
82.5 50.1 1.8944
81.6 42.3 3.32386
81 41.1 3.31251
82.2 49.8 1.8794
81.3 49.2 1.71
81.6 48.9 2.0841
81.9 42.9 3.4114
81.6 42.6 3.2549
81.9 50.1 1.5675
79.8 54.3 0.363859
80.7 48.6 1.7337
80.1 49.5 1.41908
81 48.3 2.0293
79.5 48.9 1.46042
80.4 48 1.8368
78.9 47.4 1.71479
78.6 49.2 0.9889
77.4 48.3 1.08915
77.1 50.4 0.830402
77.1 48.6 1.06556
75.6 48.6 1.00041
75.3 50.4 0.778415
73.8 49.2 0.718
73.8 47.7 1.01653
72 48.3 1.16628
72 48.9 1.2651
71.4 48.3 1.1989
79.5 46.8 1.94058
78.6 44.4 2.22115
79.2 43.2 2.54827
77.4 44.4 2.04667
77.4 46.2 1.7913
76.8 42.6 2.23676
76.5 43.5 2.16256
75.9 44.4 2.09311
75.6 43.5 2.24622
75 43.5 2.25261
74.7 44.7 1.6606
74.1 44.7 1.66612
73.5 43.2 1.9634
74.4 42.3 2.47027
72.6 41.1 2.59102
72.3 42 2.0738
71.7 41.4 2.1406
71.4 41.4 2.1867
71.7 41.7 2.1349
76.2 47.4 1.20146
75.3 45.6 1.4552
75.6 45 1.83586
72.3 45.9 1.27785
73.2 44.7 1.71251
74.7 42 2.47557
81 43.2 3.0716
80.4 43.5 2.96856
72.3 50.7 1.5007
71.7 51.6 0.4406
71.1 50.4 2.3075
71.4 50.1 2.3413
72.6 50.4 1.4714
71.7 49.5 1.911
75.9 51.3 0.698635
74.7 50.7 0.517807
73.8 53.1 0.377956
73.5 52.2 0.569459
73.8 50.4 0.687099
72.9 51.3 0.814981
73.2 49.8 0.978625
72.3 52.8 0.23647
81 50.7 1.22543
80.4 51.3 0.6964
80.1 51.6 0.658219
80.1 51 0.7281
78.3 53.7 0.4886
77.7 52.8 0.611709
83.7 50.1 3.09561
93.3 57 1.8475
93 56.7 1.9789
92.4 55.2 2.89073
91.7667 55.8 1.89263
91.8 55.2 2.3072
92.2333 56.3333 1.55009
91.945 56.0667 1.72079
91.5333 55.5 2.0328
91.355 55.2333 2.14073
86.1 53.7 1.2182
86.1 53.1 2.23529
85.5 53.1 1.5199
86.1 52.8 2.855
85.2 52.8 1.6515
85.2 51.9 3.0214
84 52.2 1.3578
84.3 50.7 3.14157
87.9 57.3 0.210168
87.9 56.7 0.228001
87.9 54.9 0.7299
86.7 54.9 0.78674
87.6 54.6 0.9144
87.9 54.6 0.9117
87.3 54.3 1.0954
86.1 54 1.0394
86.1 54.3 0.941985
85.2 53.7 1.03528
85.8 55.2 0.462041
85.5 55.5 0.2282
85.2 53.1 1.3152
84.6 54 0.758541
84 54.6 0.308948
93.3 57.2667 1.11064
93 57.0667 1.19237
92.7333 56.855 1.27717
92.4667 56.6 1.3983
88.5 54.9 0.4136
90.3 59.7 -0.31
74.1 59.7 -0.005922
74.2667 60 0.070753
73.9333 59.4 -0.08183
73.7667 59.1 -0.160683
87.6 60.2667 -1.24584
87.9 60.3333 -1.27242
87.3 60.2333 -1.21762
86.7 60 -0.91354
87 60.2 -1.18834
86.7 60.155 -1.16014
86.4 60.0667 -1.12973
86.1 59.9667 -1.10648
85.8 59.8667 -1.07864
85.5 59.7667 -1.04199
85.2 59.6333 -1.00769
84.9 59.5333 -0.971359
84.6 59.4 -0.939043
93.455 59.0667 -1.63179
93.155 59.4 -1.71126
93 59.1 -1.2119
93.155 59.855 -1.80683
92.855 59.855 -1.80691
93 59.7 -1.57008
93.155 59.6 -1.76399
93.155 58.655 -1.32225
92.6333 60.155 -1.73878
92.4 59.4 -0.9325
92.3667 60.155 -1.75774
92.1 60.2667 -1.76337
92.1 60 -1.37621
91.8 60.3667 -1.76114
91.2 59.7 -0.5357
91.5 60.4333 -1.75519
91.2 60.4667 -1.7421
90.9 60.5 -1.71639
90.6 60.5333 -1.67937
90.3 60.5667 -1.6362
90 60.5667 -1.59007
89.7 60 -0.5702
89.7 60.5333 -1.54381
89.4 60.5 -1.49626
89.1 60.4667 -1.44618
89.1 59.7 -0.2594
88.8 60.4333 -1.38951
88.5 60.4 -1.34027
88.2 60.3667 -1.30346
75.755 63.8333 1.47063
75.455 64.0667 1.6504
75.3 63.9 2.3452
75.755 63.5667 1.3071
75.3 63.3 2.2956
75.755 63.3 1.15969
75.755 63 1.02488
75.6 62.7 0.904873
75.2 64.355 1.84065
75 64.2 2.5629
75.2333 61.8 0.587321
75 62.4 1.9681
74.4 62.1 2.6529
74.9667 64.4667 2.03654
75.0667 61.5 0.496986
74.7 64.655 2.23121
74.7 64.5 2.59137
74.9333 61.2 0.41002
73.8 61.8 2.9665
74.7667 60.9 0.32309
74.7 63 3.0285
73.8 60.9 1.75227
73.5 61.2 2.6091
73.2 60.9 2.5354
72.9 61.2 2.9352
75.5 62.4 0.790018
75.3667 62.1 0.684593
74.6 60.6 0.236699
74.4333 60.3 0.153582
74.7 63.9 3.0573
74.4 64.7667 2.42482
74.1 64.8667 2.61519
73.8 64.955 2.79416
73.5 65.0333 2.96487
72.3 65.2667 3.52864
48 28.8 6.31771
46.5 28.2 6.3119
48 27.9 5.7408
47.7 31.5 5.8683
47.4 32.4 5.88859
46.8 31.8 5.9662
47.4 32.7 5.79626
45.9 32.7 5.68396
47.4 31.2 5.62666
46.8 31.5 5.875
47.4 30.9 5.3811
46.5 30.9 5.4414
46.5 30.6 5.438
47.4 30.6 5.3357
47.4 27.3 4.9691
46.5 27.9 6.062
46.2 26.7 4.5189
47.4 27 4.6163
47.1 26.4 4.50797
46.2 25.5 4.49744
45.3 33.9 4.98999
47.4 29.7 6.3836
47.4 29.4 6.4998
45.9 28.8 6.55644
45.6 29.7 6.5361
24 23.1 4.83557
24.6 24.6 5.00526
36.6 29.4 5.64613
34.8 29.1 5.29765
36.3 28.2 6.06289
36 31.8 4.62748
36 27.3 6.15929
35.1 27.6 6.00281
35.4 27 6.08954
35.4 31.5 4.66463
34.8 30.3 4.74157
35.4 30.3 4.6856
34.2 26.1 5.85848
35.4 26.4 5.96986
35.4 30 4.818
34.8 29.7 4.8114
34.5 24.6 4.899
34.2 25.5 5.59323
34.2 29.4 4.8281
33.3 27.9 5.59904
33.3 29.1 4.832
33 30 4.85547
32.1 30 4.82903
32.4 28.5 4.9414
31.5 28.5 4.9652
29.4 29.7 4.89679
29.7 28.2 5.10542
28.2 28.5 5.03623
27.9 29.4 4.78164
27.3 28.5 4.88871
29.4 27 5.0993
28.5 25.5 5.46519
29.7 26.1 5.54183
29.4 25.2 5.57616
28.2 24.9 5.46012
29.4 24.6 5.43216
28.8 23.7 5.07257
30 23.7 4.91911
28.2 24.3 5.34895
27.9 25.8 5.3094
26.4 24.3 5.25693
27 23.4 5.06186
26.1 27 4.96474
26.1 23.1 4.96984
25.2 24 5.09802
33.6 27.3 5.85438
32.7 25.2 5.53575
32.4 27 5.75804
33 26.1 5.84277
32.4 26.4 5.8351
31.2 25.8 5.74532
31.2 24.3 5.15379
32.4 28.2 5.15358
31.2 27.9 4.9681
30.3 27.3 5.0807
30.9 26.7 5.58289
30.9 31.5 4.66235
44.7 29.4 6.6438
44.4 29.1 6.63335
44.7 29.7 6.5389
43.8 29.1 6.62804
43.5 29.7 6.4917
43.2 28.5 6.55719
42 29.4 6.5345
42 28.8 6.57069
41.1 29.4 6.4472
40.5 28.5 6.50018
40.2 29.4 6.3266
39.9 28.2 6.45696
39.3 29.4 6.1432
39 31.2 5.29629
38.4 29.1 6.14468
39.6 30.3 5.568
39 28.5 6.39847
39.6 30 5.77693
37.5 30.9 4.99943
37.5 27.9 6.30513
45.3 27.9 6.2389
44.4 28.2 6.44761
45 27.6 5.9917
43.8 27.6 6.1743
43.8 28.5 6.55533
42 27.9 6.39756
40.8 27.9 6.41285
41.4 27 6.0029
42 27.3 6.1068
39.6 26.7 5.96881
40.8 26.7 5.8568
38.7 27.3 6.27504
41.7 26.7 5.6642
38.7 26.4 5.87345
38.4 25.8 5.4768
38.4 26.7 6.05431
37.2 27.3 6.25088
36.9 26.1 5.80615
36.3 26.1 5.83155
45.9 27.3 5.32237
45.6 27 4.9052
45.6 26.7 4.572
45 27.3 5.53307
45.3 26.7 4.6094
45.3 26.1 4.48355
44.4 26.7 4.8
44.4 26.1 4.4638
43.8 27 5.43088
43.8 26.7 4.9785
43.8 26.4 4.6285
42.9 26.1 4.5721
43.5 25.8 4.4701
45.9 30.6 5.4978
45 30.6 5.5298
44.7 30.3 5.8362
44.1 30.6 5.5398
43.5 30.6 5.5313
42.6 30.6 5.5093
42 30.3 5.6566
41.7 29.7 6.3222
40.8 29.7 6.195
40.8 30 5.88425
41.1 33 4.86411
40.2 33.3 4.3155
40.2 32.1 5.13071
41.1 31.8 5.42514
40.5 31.2 5.49082
41.4 31.2 5.58236
41.7 30.6 5.4968
40.5 30.3 5.5733
39.6 33 4.3305
37.8 31.8 4.5041
37.5 32.7 4.50554
36.6 31.2 4.5847
36.6 30.9 4.6408
45.6 31.8 5.9369
45.9 30.9 5.4801
45 30.9 5.5194
44.1 32.7 5.4771
44.1 31.8 5.8557
42.9 32.4 5.45599
43.5 30.9 5.5682
42.9 31.5 5.7819
42.9 31.2 5.68493
42.3 31.5 5.7223
92.4 38.7 8.18434
92.1 39.3 8.7031
92.1 38.4 7.912
91.2 39 8.5441
91.8 39.6 8.8334
90.3 39.6 8.8753
90.6 39 8.39672
90 38.7 7.78519
89.0667 39.155 8.03763
82.8 39 4.79312
83.1 39.3 4.5732
82.8 39.6 5.0233
82.8333 38.7 4.61373
82.5 39 5.0874
82.5 38.7 5.0476
82.2 38.4 5.2269
81.9 38.4 5.1723
63.9 39.3 4.9337
63.3 39.3 5.1111
63.3 39 5.0046
62.1 38.7 5.15333
62.7 39.9 5.11132
61.8 39.3 5.13067
60.9 37.8 5.18158
60.3 38.4 5.0862
59.4 36.9 5.24331
58.5 36.6 5.26197
59.1 36.3 5.2692
58.2 36.9 5.15736
58.5 35.7 5.2719
50.1 29.1 5.4841
49.5 29.4 5.6795
49.2 29.1 6.0177
49.2 29.4 5.8856
48.6 29.1 6.2386
48.3 29.7 6.0911
48 29.4 6.3799
52.5 25.8 4.53922
51.9 25.8 4.54405
50.1 27.6 4.85155
50.4 26.4 4.57141
49.8 28.5 5.6222
50.1 27.3 4.6243
49.2 27.9 5.37416
49.8 27 4.5266
48.9 25.5 4.52285
48.9 28.2 5.7928
48.9 27.3 4.7414
48.6 27 4.5351
47.7 29.7 6.3149
47.7 30.3 5.5376
53.1 33 5.71342
52.2 32.4 5.7851
53.1 32.7 5.7001
51.3 32.7 5.8509
50.7 33 5.81306
51.6 32.4 5.82647
51 32.1 5.83396
50.1 31.8 5.891
50.4 31.2 5.3983
48.6 32.4 5.9261
48.9 32.1 5.95768
49.2 30.3 4.6313
49.5 31.2 5.5449
49.2 31.8 5.9497
48.9 30.6 4.8622
48.9 30.3 4.8259
48.6 31.5 5.8467
48.3 30.6 5.0574
48.3 30.3 5.2013
48 30.9 5.316
48 30.6 5.1738
56.4 35.1 5.43395
56.7 34.8 5.4604
55.8 33.9 5.4519
55.2 33.6 5.5004
54.9 33.3 5.466
54.6 33.6 5.57751
53.7 33 5.6658
53.4 33.6 5.65904
60.3 37.2 5.2127
60 36.6 5.1136
92.7 37.8 8.0486
92.7 37.2 8.7512
92.1 38.1 7.856
90.9 23.1 8.8704
91.8 36.9 9.1113
90.9 38.4 7.8165
91.2 37.2 9.026
90.9 37.8 8.1446
90.3 37.8 8.0943
90 36.9 9.3018
90.9 21.9 6.457
90.6 38.7 8.0583
90.3 22.5 7.7701
89.555 37.945 8.22423
89.7 23.4 9.0231
90 22.2 7.0089
88.8 24 9.31029
88.8 23.1 8.3844
88.8 22.5 7.2638
89.1 37.2 9.044
88.2 37.4 8.64678
87.6 23.7 8.6768
87.9 22.8 7.4656
86.7 23.7 8.2038
86.4 23.1 6.9552
86.7 24.6 8.96498
86.7 25.2 9.25223
86.1 24.3 8.4587
84.9 25.5 8.42924
85.8 30.3 8.59083
85.2 31.8 8.60712
83.4 31.5 8.23393
83.4 28.8 8.02862
84.6 28.2 8.52886
84.9 26.4 8.70035
84.3 26.1 8.26827
85.2 26.1 8.80184
83.1 27.3 7.75342
84.3 36 9.02404
83.7 36.0333 8.41398
84 35.4 9.2793
83.4 35.7 8.7637
82.8 35.845 7.74737
83.1 33.9 9.13934
81.9 33.3 8.71612
83.1 30.3 7.98058
82.8 35.1 9.0332
82.2 35.1 8.7133
82.045 35.845 6.81543
81.6 35.7 6.96403
81.9 34.8 8.8141
81 31.8 7.52262
80.7 32.7 7.97585
80.1 34.8 7.4971
81.3 33.6 8.68355
80.4 34.2 8.3177
80.4 33.3 8.2506
81.3 33.9 8.7851
81.9 29.7 7.41326
82.5 28.8 7.6187
81.3 28.5 6.68626
81.9 27.9 7.00327
82.5 27.3 7.29632
82.2 27 6.8826
81.3 26.7 5.3566
81.745 36.145 6.46537
82.0333 36.4 6.12386
82.045 36.9 5.53595
81.3 36.6 5.7175
82.2 38.1 5.187
81.6 37.5 5.3545
82.4333 37.8 4.90697
81.3 29.1 6.89702
81.3 27.6 6.18394
80.4 31.2 6.9268
79.8 29.4 5.57365
80.1 28.5 5.4452
79.2 29.4 5.1078
78.9 29.4 5.05968
78.9 27.9 5.025
77.4 27.9 4.9027
77.1 29.7 4.8854
76.5 27.6 4.75182
74.7 29.4 4.71274
75 28.2 4.57206
80.4 28.2 5.61078
77.1 26.4 4.6211
75.6 26.1 4.6651
74.7 25.8 4.6443
74.7 26.1 4.6311
72.6 26.4 4.51348
72.9 25.8 4.56963
72.3 25.8 4.53357
80.7 26.7 4.7199
79.8 27.9 5.14125
77.7 27.6 4.89709
81 36.3 5.68045
79.5 31.5 6.40844
79.2 30.6 5.53509
78 31.8 5.0191
78.3 30.9 4.8879
78.9 34.2 7.0117
78.9 33.3 7.1174
78.3 33 6.2358
79.5 32.7 7.31493
78.6 33.9 6.778
77.7 31.5 4.7249
79.2 30 5.2187
77.4 33 4.7926
78 30.6 4.82639
80.1 33.9 8.1961
80.1 34.5 7.9491
79.5 34.2 7.668
79.8 33.3 7.9139
79.2 33.6 7.493
93 21.3667 4.70598
92.7 21.3333 4.69582
92.4 21.3 4.68844
92.1 21.3 4.67826
91.8 21.3 4.66395
91.5 21.3 4.64507
91.2 21.3 4.62981
90.9 21.3 4.61869
90.6 21.3 4.60491
90 21.9 6.19753
89.4 21.4 4.54169
89.1 21.4333 4.53023
88.8 21.4667 4.52802
88.5 21.5333 4.51877
88.2 21.6 4.51169
87.9 21.6667 4.50484
87.6 21.745 4.49572
87.3 21.8333 4.48892
87 21.9333 4.47698
86.7 22.0333 4.46934
86.4 22.1333 4.4663
86.1 22.2667 4.45654
86.1 23.4 7.2656
85.8 22.4 4.45381
85.5 22.5667 4.44746
85.2 22.645 4.44557
84.9 24 7.013
84.9 22.9 4.45601
84.6 24.9 7.8556
84 24.3 6.2859
84.6 23.1 4.46592
84.3 23.3 4.47503
84 23.5333 4.47427
83.7 24.9 6.8255
83.4 24.0333 4.45383
83.4 26.1 7.5937
82.8 26.7 7.3526
83.7 25.5 7.4875
83.1 24.2667 4.43133
82.8 24.5 4.40148
82.5 24.755 4.35917
83.7 23.8 4.46636
90.3 21.3 4.58852
90 21.3333 4.5697
89.7 21.3667 4.55467
93.3 38.1 7.7127
92.4 38.1 7.8366
90.9 38.1 7.7909
90.6 38.4 7.7367
90.3 38.1 7.6819
89.855 38.2333 8.14613
82.2 34.5 9.0689
91.2 27.6 10.0327
89.7 29.4 9.25497
89.7 27.6 9.87362
87.6 28.8 9.13279
87 30.9 8.72449
86.7 27.6 9.27675
87.9 26.7 9.74471
89.1 25.5 10.0045
87 26.1 9.53267
88.5 24.6 9.60429
86.1 27 9.21428
92.4 25.2 10.3281
90.6 26.4 10.2267
92.4 24.3 10.0031
90.3 24.9 10.0807
91.8 24.3 9.98172
92.1 23.7 9.56253
91.2 23.7 9.50838
90.3 24.6 9.97086
89.4 26.7 10.0305
90.3 32.7 8.86201
88.5 35.7 9.49238
87 32.1 8.80214
90 30.6 8.97165
86.4 35.1 9.50087
87.9 36.6 9.3968
87.6 36.6 9.365
88.2 37.2 8.88602
86.7 36.3 9.4124
86.1 36.6 9.0545
86.1 36 9.4579
85.8 33.9 9.23352
85.2 35.7 9.4263
85.2 34.8 9.45946
85.5 36.3 9.10903
84 34.5 9.3518
84.6 36 9.04103
84.9 35.4 9.42849
83.1 34.8 9.2562
90.9 36 9.27693
89.7 35.4 9.33853
91.2 36.9 9.2102
90 36.6 9.406
88.8 36.3 9.47713
88.2 36.6 9.4196
69.9 64.8 4.9276
70.5 63.9 4.96404
70.2 64.5 5.0345
70.5 63 4.77385
69 63.3 5.22795
69.3 64.2 5.2738
57 60 5.28514
56.4 59.1 5.1943
56.1 58.5 5.06345
55.2 58.5 5.01241
54.9 58.8 4.9952
54.6 57.9 4.73621
64.8 41.1 4.9153
63.9 41.1 4.882
63.9 40.5 5.05575
64.2 39.9 5.0719
63.6 39.6 5.1175
63 40.2 5.07757
62.7 40.8 4.8348
66 41.1 4.7308
65.4 41.1 4.8532
66 40.8 4.7793
65.4 40.8 4.88067
66 40.2 4.6607
57.6 63 4.7755
57.9 60.6 5.1077
57.9 61.8 5.1997
57.6 62.4 5.1355
57 62.4 5.0831
57.6 60.9 5.23958
57.3 63.2 4.32881
57 63.155 4.36335
56.7 62.9333 4.38066
56.7 62.7 4.8246
57 61.2 5.31835
56.1 60.3 5.31622
56.4 62.7333 4.37285
56.1 62.4 4.74956
56.1 62.555 4.3327
56.4 61.8 5.13003
56.1 60.9 5.25987
55.2 60 5.11729
55.5 61.2 5.0415
54.9 60.6 4.9164
54.3 59.4 4.77266
54.6 60.3 4.8176
64.8 62.4 5.42514
64.5 63 5.31134
63.3 61.8 5.22462
64.8 61.5 5.23301
63.9 60.9 5.06433
64.5 64.0333 4.60225
64.2 63.9333 4.57113
63.6 63.7 4.49506
63.3 63 4.86085
63.9 63.8 4.53517
63.3 60.6 4.96877
63.3 63.5667 4.447
62.4 61.2 4.99141
63 63.4667 4.39622
62.7 63.3333 4.3444
61.5 60.6 4.64386
69.9 65.2667 4.33604
69.6 65.2333 4.41516
69.3 65.2 4.48151
69 65.1667 4.53464
69 64.5 5.218
68.7 65.1333 4.57489
68.7 64.2 5.3514
68.7 63.6 5.32995
68.4 62.4 5.04081
68.4 65.0667 4.60692
67.8 64.5 5.1962
67.8 63.9 5.4639
67.8 63.6 5.44555
67.2 62.1 5.1392
68.1 65.0333 4.63178
67.8 65 4.64974
67.5 64.5 5.10097
67.5 64.9667 4.66384
67.2 64.9 4.67295
66.9 64.8333 4.67437
66.6 63.9 5.4023
66.3 62.7 5.4442
66.3 62.1 5.28382
66.6 64.7667 4.67407
66.3 64.6667 4.67332
65.7 64.4667 4.67023
65.4 63.6 5.3207
66.6 63 5.47019
65.4 63 5.45524
66 64.5667 4.67479
65.4 64.3667 4.65935
65.1 64.2667 4.64637
65.1 63.9 4.96259
64.8 64.1333 4.62605
90.6 40.5 8.87753
88.5 42 8.57804
89.4 39.9 8.8296
88.8 39.6 8.3773
88.2 40.8 8.7561
87.6 40.5 8.3996
87.3 43.5 8.14006
87.3 40.8 8.3683
87 42.6 8.37112
87.6 41.7 8.58869
86.7 42 8.34317
87 41.4 8.4304
82.8 45.9 5.94337
82.2 46.5 5.1582
81.9 45.9 5.2841
82.5 45 5.9798
81.6 45.3 5.117
89.7 46.2 7.00737
89.1 49.5 6.09862
88.5 47.4 6.51986
86.7 46.5 6.6841
85.2 46.5 6.43223
85.8 41.2 7.03988
85.2 42 7.175
84.6667 41.855 5.94565
84.3 47.1 5.70693
84.9 46.2 6.58934
84.9 42.6 7.3162
83.4 45.6 6.43469
84.3 42.3 5.98984
84.3 44.4 7.26924
83.4 45 6.6827
84.3 43.2 7.0071
84 43.8 7.0258
84 41.7 5.14556
83.6333 40.5 4.84235
83.1 39.9 4.98273
82.8 39.9 5.0256
86.4 45.6 7.1831
88.8 39.3667 8.03386
87 40.5 7.79214
85.8 43.5 7.98031
86.1 42.3 8.1551
87 40.8 8.17843
86.4 41.1 7.86717
86.1 41.4 7.787
85.8 44.1 7.83906
85.2 45.3 7.2367
85.2 43.2 7.7969
85.2 43.5 7.76966
84.6 43.8 7.4983
91.5 45 7.28559
93 52.8 6.4044
92.1 53.4 5.9339
91.8 53.1 6.1591
92.1 51.6 6.66868
90.3 52.5 6.01311
89.4 51.6 5.8424
88.8 52.5 5.35364
90.3 53.1 5.7859
90.6 53.7 5.3347
89.7 53.7 4.9468
89.7 53.4 5.2943
89.4 52.8 5.5253
88.5 53.1 4.8801
89.7 40.2 8.9535
71.1 63.9 4.78763
120.445 42.8333 4.04802
120.667 43.1 4.2733
119.7 43.5 4.9791
119.7 42.9 4.0482
118.8 43.5 4.7533
119.4 42.6 3.6931
118.5 44.7 5.16342
118.2 43.2 4.2496
118.5 42.6 3.6667
117.3 44.1 4.44913
117.6 47.1 4.99667
116.1 48.6 4.528
115.5 46.8 4.18101
117.6 42.9 3.80685
117.6 16.5 3.72026
117.567 16.8 3.74799
116.4 17.1 4.50562
117.533 17.1 3.77657
117.5 17.4 3.80556
117.467 17.7 3.83833
117.433 18 3.87385
117.4 18.3 3.90409
116.1 18.9 4.62541
117.367 18.6 3.92817
117.333 18.9 3.95084
117.3 19.2 3.972
117.3 44.7 4.61524
116.1 44.7 4.22038
116.4 42.9 3.56629
116.1 43.8 3.9867
117.3 15.9 3.94022
117.3 19.8 4.00279
117.267 20.1 4.00882
116.4 20.1 4.58128
117.3 19.5 3.99
117.233 20.4 4.0138
117.2 20.7 4.01656
116.7 20.7 4.5078
117.167 21 4.01894
117.133 21.3 4.02002
117.067 21.6 4.00946
116.7 21.6 4.4798
117 21.9 3.99293
116.933 22.2 3.97151
117 15 4.218
116.4 15 4.40049
117 14.4 4.1743
116.4 13.8 4.03901
116.867 22.5 3.94696
116.1 22.8 4.6616
116.833 22.8 3.92099
116.767 23.1 3.89106
116.7 23.4 3.8592
116.633 23.7 3.82661
116.1 24 4.4782
116.7 38.7 3.65847
117.3 40.5 4.18396
114.6 40.2 4.25723
116.4 21.6 4.6415
116.567 24 3.80126
116.5 24.3 3.78608
116.433 24.6 3.76551
116.367 24.9 3.74555
115.8 24.6 4.6161
115.8 14.1 4.12655
116.267 25.2 3.72339
115.8 25.2 4.5083
116.167 25.5 3.70462
116.1 25.8 3.67342
115.5 25.8 4.6143
114.6 49.2 4.34884
114.6 48 4.05155
116.1 16.5 4.60183
115.9 26.4 3.58436
115.767 26.7 3.51615
115.2 26.7 4.5367
115.8 26.1 4.20156
114.9 14.7 4.38927
115.5 27 3.94274
115.533 27.3 3.34101
115.4 27.6 3.23562
114.9 27.3 4.4778
115.2 41.4 4.2057
116.7 41.4 4.1714
115.2 23.1 4.75271
113.4 24 4.53442
112.5 20.7 4.19388
115.2 13.8333 3.86844
114.9 27.9 3.8984
115.045 28.4667 2.8783
114.6 27.9 4.3377
114.9 20.4 4.67595
114.9 13.9667 3.92568
114.6 14.1333 3.98089
113.1 49.5 4.36151
113.4 47.7 3.80085
114.6 38.4 3.70691
112.8 39.3 4.11377
114.3 28.5 4.1259
114.3 27.9 4.6093
114.3 14.2667 4.03739
114 42 3.59301
113.7 41.1 4.3034
114.6 42 3.61325
114 40.5 4.30454
114 36.9 3.6225
113.7 37.2 3.8224
113.4 36.9 4.4535
114 35.7 3.7425
113.7 36.3 4.22961
113.4 36.3 4.7398
113.1 36 5.0716
113.1 35.4 4.7988
114 29.7 3.1346
113.1 30 4.03896
113.1 29.1 4.713
114 29.1 3.8601
114 28.2 4.6494
113.4 28.8 4.702
114 14.3667 4.08684
113.4 15.3 4.60943
113.1 42.3 3.2618
113.7 14.4667 4.12932
113.4 34.8 3.92597
112.5 34.8 4.42884
112.8 34.2 3.7988
114.6 25.5 4.75766
111.9 24.9 4.1814
111.9 24 4.09467
113.4 14.5667 4.17129
113.1 14.6667 4.20595
113.1 15 4.43317
112.2 48.3 3.92356
113.1 30.6 3.5512
112.5 31.2 3.7871
112.2 30.6 4.39691
112.5 30 4.5994
113.1 17.7 4.53045
114.6 19.5 4.61056
112.5 40.5 4.30023
111.6 39.6 4.25659
112.5 38.7 3.95369
112.8 36.9 5.0345
112.5 37.8 4.0831
112.8 14.7333 4.23423
112.2 41.4 4.0898
111.9 35.1 4.8183
111.6 34.5 4.1067
111.6 34.2 4.0808
112.5 33 3.8839
111.9 32.7 4.54993
112.8 31.5 3.5906
112.2 31.5 4.011
113.1 30.3 3.7665
112.5 14.8 4.25732
111.3 51 4.72081
110.1 49.2 4.16252
111.9 41.1 4.20384
112.2 37.5 4.5221
111.6 32.1 5.1279
111.3 31.2 4.89668
111.9 52.5 5.15
110.7 52.6333 3.94317
110.7 51.6 4.438
111.9 45.6 3.5888
110.4 45.6 5.3158
110.7 45 4.9935
111.6 41.4 4.06476
110.7 40.8 5.012
111 39.9 4.53898
111.9 37.8 4.1251
111 33 5.9136
111.9 26.1 4.3498
110.7 39 4.17531
111.6 37.5 4.50959
111.3 37.8 4.0576
111 35.1 4.3429
111 34.8 4.12
110.7 33.6 5.7739
111.6 25.5 4.2857
111.6 24.9 4.1561
111.3 53.1667 4.30608
111 52.9 4.12337
111.3 38.4 3.95485
111.3 24.9 4.3377
111.3 24.3 4.0593
111 47.1 3.8115
110.7 46.8 4.2879
111.6 46.5 3.6324
111 44.4 4.16119
110.4 44.7 4.9813
109.8 44.4 4.8191
110.4 39.9 4.8905
110.7 34.8 4.0677
110.1 35.4 4.1418
111 19.5 4.03469
110.4 52.3667 3.76868
109.8 51 3.74573
110.7 51 4.5304
109.8 50.4 4.0286
110.4 46.2 5.1199
111 41.7 4.0881
110.7 37.8 3.9885
110.7 37.5 4.2556
110.4 37.5 4.1765
110.7 37.2 4.62662
110.7 34.5 4.305
110.1 34.8 4.1024
110.7 23.7 3.7912
110.4 24.9 5.6395
109.8 24.6 5.5429
110.4 42.9 3.5362
110.4 42 4.5556
111.3 42.3 3.3454
110.4 41.7 4.8944
110.1 42.9 3.6522
109.8 42 5.0318
109.8 36.6 4.7346
110.4 16.5 4.75703
110.1 52.1 3.6026
109.8 51.9 3.44711
110.1 47.7 3.9388
109.8 46.8 4.9316
108.9 42.9 3.6427
111 35.7 5.0131
110.4 36 4.8801
109.8 36.3 4.7383
109.8 34.2 5.3047
109.5 34.8 4.1267
108.9 48 3.7816
108.6 47.4 3.86591
108.9 46.5 5.0352
109.8 43.5 3.6125
109.8 38.7 4.12346
109.5 39.9 5.1133
109.2 37.2 4.20468
108.9 36.6 4.5304
109.5 43.5 3.6425
108.9 44.1 4.42914
108.9 43.5 3.6877
108.6 39.3 4.50119
109.5 35.1 3.893
109.2 34.5 4.60625
109.5 18.9 4.20994
108.9 37.8 3.97628
109.2 34.8 4.0789
108.6 34.8 3.9311
107.7 46.5 3.5063
108.9 46.2 5.2161
107.7 43.8 4.15484
108.9 42 4.9825
108.6 42.9 3.566
108.3 42.9 3.5192
108 42 4.24303
108.6 41.7 5.1396
108.9 38.4 4.04202
108.3 39 4.27096
107.4 36.6 4.3709
108.9 36 4.4063
108.9 35.4 3.9201
107.7 35.1 3.7039
108.6 35.1 3.7905
108.9 34.2 5.0107
108.9 23.7 3.5435
109.5 24.9 6.0249
108.9 24.9 5.8017
108.3 24.6 4.40621
108.6 23.7 3.4757
108.6 33 5.626
107.1 32.1 4.14563
108.9 32.4 5.6579
108.6 31.5 4.635
107.1 31.2 4.0385
108.6 30.6 4.37775
108.6 17.7 4.6581
108.3 45 4.9557
108 45.3 4.6174
107.4 44.4 4.14371
107.1 39.6 4.47146
107.1 38.4 3.96893
108.3 29.7 4.2812
106.8 30.9 4.1415
108.6 25.2 5.995
108 24.6 3.9333
107.7 24.3 3.5464
108 41.1 5.1092
107.4 42 3.6624
106.8 41.7 3.5385
108 34.8 3.8412
108 34.2 4.5289
107.1 34.8 3.8447
108 27 6.1573
106.8 27 4.0508
108 26.1 5.8538
107.4 25.5 3.9428
107.7 44.1 4.3197
108.6 44.4 4.7675
107.4 36.3 4.3668
107.7 33.6 4.981
107.7 18.6 4.49347
109.5 20.4 3.77292
107.4 51.3 3.6291
106.5 51.3 4.57692
107.4 50.1 3.1195
107.4 45.9 3.4466
107.4 37.8 3.93201
105.6 37.5 3.7799
106.2 36.6 4.2564
106.2 36.3 4.2353
106.8 35.7 3.90392
107.4 33.3 4.8905
106.5 32.7 4.11275
108.3 25.8 6.192
107.1 54.9 4.05553
106.5 54.6 4.53931
107.1 52.8 4.20541
106.2 55.5 4.50057
106.2 52.8 4.86469
107.1 51.9 4.10079
105.6 39.3 4.3577
106.2 38.7 4.0605
106.5 35.1 3.6807
106.5 34.2 4.5145
107.1 28.2 5.0757
106.5 27.9 4.2162
107.4 27.3 5.2635
107.1 20.7 3.98526
106.8 18.6 4.61407
103.5 21.6 4.73998
105.6 18.3 4.86474
106.8 57 3.6966
105 57.6 4.08677
105.3 56.4 4.5348
106.8 31.5 3.9791
105.9 32.4 3.8218
105.6 31.2 4.5282
106.2 49.8 4.549
106.5 40.5 4.3661
106.2 41.1 3.6508
106.2 34.5 4.2824
106.5 33.3 4.44713
105.9 33 3.9671
106.5 30 4.8183
106.5 29.7 4.8898
105.9 28.8 4.1676
107.1 28.8 5.0941
107.4 49.2 2.8232
106.8 48.6 3.0871
105.6 37.8 3.735
106.2 33.9 4.57
106.5 33.6 4.6161
104.7 33.3 3.7222
105.9 48.3 4.2517
105.3 48.9 4.9527
105.9 46.8 3.1834
105 47.4 4.7167
105.9 35.1 3.7533
105.3 34.5 4.3043
105 32.4 4.02785
106.2 29.7 4.8166
105.6 40.5 3.86574
105.6 39.9 4.3196
104.7 40.5 3.5205
104.7 38.1 3.84983
105 36.6 4.1452
105.3 46.5 3.7989
104.4 46.5 4.71074
104.4 45.9 4.468
105.3 39.6 4.3356
105.3 35.1 3.8504
104.7 34.8 4.1279
104.7 34.2 4.1498
105.3 29.1 3.9924
103.8 57.3 4.18347
104.7 31.8 4.4844
104.4 32.7 4.07329
105 31.2 4.5999
104.4 30.6 4.1576
105 27.6 4.03671
102.9 28.8 4.71594
102 27 5.16806
104.7 45.6 3.93433
103.5 44.7 4.4177
104.7 44.1 2.9944
103.8 43.5 3.3974
104.7 39.3 4.2683
103.5 39.6 3.75334
103.8 39 4.1504
104.7 24 4.22541
102.9 24.3 4.82758
102.9 22.8 4.85344
105.6 22.8 4.02324
104.1 32.1 4.4043
103.8 32.7 4.2737
104.1 40.2 3.5518
104.1 38.7 4.1674
104.4 55.5 4.90816
102.9 43.8 4.28334
104.1 33.3 3.8217
103.8 31.8 4.26508
103.8 30.6 4.15826
103.2 31.5 4.16695
103.2 30.6 4.3174
104.1 29.1 4.22221
103.5 42.6 3.3194
103.2 54.9 4.98148
103.2 42.3 3.4006
103.2 33 4.1964
102.3 32.7 4.0275
101.7 31.2 4.39309
102.6 54.9 4.89475
102.3 44.1 4.65048
102.3 42.3 3.82435
100.8 43.2 4.5107
101.1 32.1 4.1315
102.3 30.3 4.62437
101.7 55.5 4.50691
101.1 57.6 3.17433
98.4 55.8 3.88679
101.1 31.5 4.5677
100.8 32.1 4.4328
100.8 42.3 4.2257
100.5 43.2 4.6967
100.5 42.3 4.4197
101.1 40.8 3.6826
100.8 33 4.035
99.9 33.9 4.6224
99.6 32.1 6.7746
100.2 40.5 3.9834
99.6 42 5.4866
100.5 33.9 4.0437
100.8 33.6 3.8771
100.2 34.5 4.24005
99.3 34.8 4.70588
99.6 54.3 4.70485
97.2 54.9 4.34366
98.7 41.4 5.91986
99.6 37.5 4.2751
100.5 37.5 3.87951
100.2 39.9 3.8803
100.2 36.6 4.03608
98.4 37.2 5.04001
96.3 55.8 3.8415
98.4 35.1 5.21805
98.1 39 5.34957
95.7 54.9 4.25123
95.7 53.4 4.7291
95.4 53.1 5.0531
124.733 38.9667 2.4463
124.467 39.2333 2.50451
123.9 38.7 2.88686
124.2 39.5 2.55988
123.9 39.755 2.61189
123.6 39.9667 2.66194
122.4 39.6 3.3821
121.5 38.7 3.30206
121.5 40.2 3.6403
120.6 39.3 3.58998
118.8 37.5 2.91835
119.7 39.9 3.86401
117.3 38.4 3.46819
114 37.8 3.5652
103.5 38.7 4.1239
102.9 39.9 3.6276
102 39.3 3.6475
102 38.1 3.88046
101.1 37.5 3.80614
117 36 2.7018
119.4 36 2.38767
118.2 30.3 3.07838
118.5 34.2 2.32561
115.2 31.8 3.47202
117.3 29.7 3.0204
117.7 14.7 3.28256
117.7 15 3.60366
117.6 14.4 3.74759
117.6 14.1 3.7092
117 13.8 4.0014
117.3 13.5 3.6944
116.7 36.9 2.95788
117 13.5 3.8385
117.167 13.3333 3.25411
117.455 13.355 1.70464
117.455 13.345 3.23713
115.8 34.8 2.88995
117 28.8 2.09445
117.3 28.7333 2.08126
117.3 29.1 2.45571
116.7 28.8667 2.11675
116.4 29.4 2.6044
115.2 30.3 3.194
110.4 21.9 3.5666
116.7 13.2 3.70854
116.933 13.045 3.27788
116.667 13.045 3.31067
116.4 13.3 3.65356
116.1 13.345 3.70369
115.8 13.5 3.75819
115.5 13.6667 3.81408
106.8 25.5 3.688
105.3 35.7 3.7636
106.2 35.4 3.6613
105.3 35.4 3.6992
105.3 32.7 3.7751
105.6 27.9 3.90591
105.3 28.5 3.9199
106.2 27.3 3.8334
105.3 27.9 3.95277
105 36.3 4.1033
104.7 37.5 3.714
104.7 37.2 3.85719
104.7 35.7 3.7607
104.7 35.4 3.7624
103.8 36.6 4.0169
104.7 36 3.91557
104.4 37.8 3.7094
104.1 35.7 3.7757
104.1 34.8 4.0652
103.8 33.9 3.7366
103.8 35.4 3.86232
102.9 34.2 3.83661
102 35.4 3.76966
102.6 37.5 3.80716
103.2 36.3 3.90326
101.4 37.2 3.80129
101.4 33.6 3.9103
101.4 35.4 3.7841
101.1 36.6 3.82077
101.1 33.6 3.90357
116.4 28.9333 2.15284
116.1 29.0333 2.20023
115.8 29.0667 2.26087
115.5 29.4 2.345
115.567 29.0667 2.33355
115.345 29.255 2.42402
115.045 29.255 2.52688
114.9 29.7 2.6055
114.6 29.7 2.638
114.3 29.4 2.9592
114.745 28.955 2.63829
110.7 23.4 3.661
110.4 22.8 3.54205
108.9 23.1 3.3396
109.2 21.3 3.568
108 21.3 3.7109
108.6 23.4 3.3777
107.7 22.8 3.54565
106.2 27.9 3.9671
116 26.1 3.6336
115.667 27 3.4307
115.267 27.9 3.12393
115.167 28.2 2.999
115.045 28.6667 2.75581
111.9 38.1 3.9058
110.7 38.1 3.9193
110.1 38.1 3.9676
110.1 35.1 3.9674
106.8 35.4 3.6873
106.5 35.4 3.6685
106.5 32.4 3.9594
115.5 37.2 3.21412
114.6 35.7 3.1857
114.3 32.1 3.58928
113.7 34.2 3.53858
114.6 36.6 3.2446
114.3 36.9 3.3866
114.9 30.9 3.37634
114 30.6 3.23645
114 30.3 3.0753
113.7 30.6 3.2334
114 34.8 3.4315
113.4 34.5 3.6942
113.4 30.3 3.4204
112.5 38.1 3.8706
117.755 13.8333 3.24599
117.755 14.4 3.25843
117.755 14.1333 3.24118
117.667 15.3 3.62213
117.633 15.6 3.64416
117.6 15.9 3.66863
117.6 16.2 3.69349
124.2 29.2 1.84781
124.5 29.3333 1.79677
124.2 29.4 2.02254
123.9 29.1 1.90166
123.9 29.7 2.4033
123.6 29.1 2.0985
123.3 29.4 2.4274
123.3 28.8667 2.00306
123 28.7667 2.05167
122.7 28.7 2.09648
122.4 29.7 2.60163
122.4 28.6333 2.13306
121.8 29.1 2.50594
121.2 30.3 2.73242
120.9 29.7 2.73987
121.2 28.5 2.23682
119.1 30 2.95665
119.1 29.1 2.7181
120.6 28.8 2.44725
117.9 29.4 2.8547
118.5 28.5667 2.11813
118.2 28.6 2.10094
117.9 28.655 2.08923
117.6 28.645 2.07887
117.6 29.7 3.0239
122.1 28.6 2.16768
118.8 28.5333 2.13923
119.1 28.5333 2.16338
119.1 28.8 2.4405
123.6 28.945 1.95144
121.8 28.5667 2.19656
121.5 28.5333 2.22087
120.9 28.5 2.24576
120.6 28.5 2.24453
120.3 28.5 2.23841
120 28.5 2.22454
119.7 28.5 2.20785
119.4 28.5 2.1869
128.555 31.8 1.34947
128.467 32.1 1.37537
127.5 32.1 2.1485
128.555 31.5333 1.33007
128.433 32.4 1.40645
128.1 32.7 1.77157
128.255 31.045 1.31711
127.8 32.7 2.1025
127.967 33.9 1.60524
127.833 34.2 1.64574
127.5 33.9 2.1568
127.7 34.5 1.68228
127.8 33.6 1.99
127.2 33.6 2.3113
127.567 34.8 1.71955
126.9 35.1 2.13246
126.6 32.1 2.26183
127.2 31.8 2.12387
126.3 31.5 2.24368
126.6 31.2 2.1145
127.1 35.7 1.83171
126.9 36 1.87255
126.3 35.4 2.36817
126.6 35.1 2.3501
126.755 36.3 1.91859
126.533 36.6 1.96895
126 36.6 2.28975
126.333 36.9 2.02165
126.133 37.2 2.07928
126.3 30.9 2.02039
126 30.9 2.2018
126.3 30.2 1.4982
125.933 37.5 2.1375
125.4 37.2 2.47035
126 30.0667 1.54122
125.7 37.8 2.19889
125.7 29.9333 1.58857
125.1 30.3 2.2742
125.1 30 2.00864
124.8 29.4667 1.74267
128.367 32.7 1.44199
128.267 33 1.48303
128.167 33.3 1.52735
128.555 31.3 1.32075
128.067 33.6 1.56706
127.767 30.745 1.3378
128 30.745 1.32285
127.433 35.1 1.75586
127.5 30.9 1.54953
127.5 30.6333 1.35977
127.267 35.4 1.7939
127.2 30.5 1.38616
127.2 31.2 1.84872
126.9 30.455 1.41929
126.6 30.3 1.45553
125.4 29.7667 1.63695
125.1 29.6333 1.69088
125.1 36 2.57145
123.9 37.8 2.87751
121.2 35.1 2.14624
124.8 34.5 2.35995
120.6 35.7 2.26238
123.6 33.6 2.2308
122.7 31.8 2.40716
124.5 31.5 2.41349
120.6 33 2.18638
121.8 32.1 2.34024
123.3 30.6 2.54642
119.7 34.8 2.17761
119.7 31.2 2.76287
117.9 30 3.07176
126 35.1 2.44659
125.467 38.1 2.26102
125.255 38.4 2.32375
125 38.7 2.38561
117.9 41.7 3.84081
117 42 3.612
117.3 41.1 4.2385
117.6 42.3 3.4252
117.3 42.6 3.4795
116.7 42.3 3.3813
108.8 58.5 0.298533
108.755 58.8 0.091076
107.1 58.8 2.2776
108 57.3 2.16042
106.5 58.2 3.2936
106.5 58.8 2.8887
105.9 58.5 3.35778
105.9 59.7 2.4417
105 59.1 3.13779
104.1 58.5 3.53664
103.8 60 2.2005
102.9 58.5 3.19754
102.3 59.1 2.45399
101.4 59.4 1.6816
100.8 58.2 2.59986
100.2 59.4 0.9151
99.9 59.1 1.191
99 59.4 0.00124
98.7 59.3333 -0.00976
98.4 58.5 1.3903
98.4 57.9 2.15202
98.4 59.2333 -0.007888
98.1 59.1333 -0.016178
97.8 59.0667 -0.01414
97.8 58.2 1.6509
97.2 58.8667 0.044026
96.9 58.2 1.3987
97.5 58.9667 0.001386
96.9 58.8 0.097359
96.3 58.6 0.241215
96.6 57.6 2.2958
96.6 58.7 0.157317
96 58.5 0.323007
106.2 43.8 3.76369
105.9 44.4 3.1188
105.3 43.8 3.2054
105.9 43.2 4.0166
105.3 42.9 3.9346
105.6 42.6 4.0687
105.6 46.5 3.39234
105.6 46.2 3.1345
105.6 45.6 2.8656
105.6 45 2.847
105.3 45 2.9258
105.6 44.7 2.8916
105 44.1 2.9474
104.7 42 4.0182
105 41.7 3.86358
106.2 41.7 3.479
105.3 40.8 3.4947
105.3 41.1 3.472
105.6 41.1 3.4567
104.7 43.5 3.1287
104.7 42.9 3.58582
104.7 40.8 3.5136
104.1 41.4 3.9613
104.4 43.5 3.0865
104.1 42.9 3.2724
104.4 42.3 3.8643
103.5 40.8 3.82714
103.8 41.7 3.9059
103.5 42.3 3.4304
102.6 41.1 3.74626
103.2 40.8 3.8997
103.8 40.2 3.55
102.6 40.5 3.8657
102.6 40.2 3.76689
102.3 41.4 3.592
101.4 40.5 3.71034
100.8 40.5 3.6889
98.1 57.3 2.73995
96 57.6 2.202
95.7 58.4 0.407524
95.4 58.3 0.513061
95.1 58.1667 0.612709
94.8 57.3 2.3151
94.8 58.0667 0.7069
94.5 57.9333 0.796391
94.2 57.7667 0.876945
96.3 56.7 3.19829
95.1 56.1 3.50688
110.4 48.6 4.06105
109.5 49.2 4.0215
108.6 49.2 3.33074
107.7 48.6 2.7833
107.7 49.2 2.7602
107.4 48.6 2.7108
111.3 47.4 3.6827
112.2 46.2 3.4548
112.2 42 3.4772
111.6 42.6 3.2289
111.9 44.1 3.49769
111.3 43.5 3.43463
111.9 42.9 3.27168
110.4 43.2 3.4541
109.8 43.2 3.5392
108.9 43.2 3.5335
107.1 47.7 2.6179
107.1 47.1 2.7844
107.4 43.2 3.89014
107.4 42.3 3.5083
106.8 45.9 3.03979
106.2 45.6 2.8099
106.5 43.5 4.087
106.2 42.6 3.9893
106.8 47.7 2.6576
106.5 46.8 2.6803
106.2 46.8 2.8381
106.8 42 3.4795
106.2 42.3 3.80514
106.2 46.2 2.6924
105.9 46.2 2.8078
116.7 42 3.6155
115.8 42.6 3.3068
115.5 42.3 3.34
114.3 44.7 3.81413
114.9 42.9 3.37311
113.4 46.2 3.63751
114.9 42.3 3.317
114.9 42.6 3.2409
114.3 42.6 3.2172
112.5 45.3 3.50199
112.5 42.6 3.1944
114 42.3 3.2908
109.2 56.4 1.5814
109.167 56.7 1.4272
109.133 57 1.2631
109.1 57.3 1.08815
109.133 55.8 1.85579
109.067 57.6 0.903787
109.1 55.5 1.97556
109 57.9 0.712321
109.067 55.2 2.08372
109.033 54.9 2.18446
108.9 58.2 0.509584
109.167 56.1 1.72456
109.533 51.745 3.30036
109.3 51.445 3.16611
109.2 51 3.10544
109.2 50.1 3.56738
109.045 51.145 3.0476
108.6 50.4 2.9636
108.745 51.445 2.94547
108.3 50.7 2.8297
109 54.6 2.27303
108.967 54.3 2.34982
108.933 54 2.41544
108.867 53.7 2.47111
108.833 53.4 2.51983
108.8 53.1 2.56534
108.767 52.8 2.61292
108.745 51.9667 2.78735
108.733 52.2 2.72537
108.3 51.6 2.8559
108.745 51.745 2.85964
108 51 2.9478
108.733 52.5 2.6681
108 51.6 3.0426
108 50.4 2.8707
108 49.5 2.8347
107.7 51 3.22952
107.7 50.1 2.9074
108.5 59.1 -0.100445
108.333 59.4 -0.280338
108.155 59.7 -0.437531
107.9 59.9667 -0.559238
107.633 60.2 -0.639886
106.8 59.7 1.6845
107.367 60.455 -0.677497
107.1 60.755 -0.669916
106.5 60.6 0.518
106.8 60.8 -0.619601
106.5 60.9333 -0.546379
106.2 61.055 -0.47084
105.9 60.6 1.2465
105.9 61.1 -0.367496
105.6 61.1333 -0.256726
105.6 60.9 0.8171
105.3 61.1667 -0.158031
105.3 60.9 0.9478
105 61.2 -0.083459
104.7 60.9 0.9759
104.7 61.1667 -0.029012
104.4 61.1333 6.1e-05
104.1 60.6 1.4148
104.1 61.1 -0.000402
103.8 61.0667 -0.007402
103.5 60.6 1.1353
103.5 61 -0.00837
103.2 60.9333 -0.028486
102.9 60.3 1.333
102.9 60.8667 -0.059747
102.6 60.7667 -0.083603
102.3 60.6667 -0.091958
102 60.5667 -0.102728
101.7 60.4667 -0.101144
101.7 60 0.9616
101.4 60.3333 -0.078861
101.1 60.2 -0.062344
100.8 60.1 -0.041616
100.5 59.9667 -0.020322
100.2 59.8333 0.00275
99.9 59.7333 0.007228
99.6 59.6 0.004936
99.3 59.5 0.009189
105.9 60.3 1.7397
105 60 2.3519
104.4 60.3 1.9729
106.5 59.7 2.0502
123.3 40.2 2.71041
123 40.4 2.7559
122.7 40.6 2.80024
122.4 40.7667 2.8429
122.1 40.955 2.88741
121.8 41.1 2.93561
121.5 41.255 2.98969
121.2 40.5 3.6694
121.2 41.4 3.05526
120.9 40.2 3.8187
120.6 40.8 3.7919
120.9 41.545 3.13752
120.667 41.7333 3.23051
120.445 41.845 3.34492
120 41.7 3.33697
120.3 40.5 3.9509
119.4 41.1 4.0158
120.145 42.1333 3.48401
120.145 42.6 3.84023
119.7 42.6 3.62767
119.845 42.3667 3.65211
119.7 42 3.31983
119.4 42.3 3.4473
119.4 41.7 3.60388
119.1 40.8 4.1149
119.1 42.3 3.4745
119.1 42 3.4784
118.2 41.4 4.0677
118.5 42.3 3.4679
117.9 42.3 3.4404
118.5 42 3.5374
117.9 42 3.5807
108.3 39.6 4.72119
97.2 39.9 6.23263
96.6 38.7 6.58571
95.4 39 7.5024
94.8 38.7 7.62663
115.8 20.1 4.72363
104.1 18.3 4.98821
103.5 18.6 5.03677
102.6 20.7 5.14816
101.7 19.5 5.184
102 20.4 5.29183
101.1 19.8 5.1504
100.867 19.2333 4.53085
100.633 19.5 4.57522
100.345 19.8 4.62229
105.6 16.5667 4.3164
105.6 17.1 4.70881
105.3 16.645 4.31724
105 18 4.93432
105.6 18 4.89369
105.6 17.4 4.8767
104.7 17.7 4.9202
105 16.7667 4.32623
104.7 16.8667 4.33275
104.4 16.9667 4.34549
104.1 17.1 4.35366
104.1 17.7 4.8552
103.8 17.245 4.36028
103.2 18 4.7558
101.7 19.2 5.00223
102.9 18.3 4.8437
103.5 17.4 4.3691
103.2 17.545 4.37912
102.9 17.7 4.39393
102.6 17.8667 4.40581
102.3 18.0667 4.41354
102 18.2667 4.42489
101.7 18.445 4.43792
101.4 18.7333 4.46161
101.133 18.9667 4.49357
111.9 15.9 4.73504
110.7 15.9 4.7322
111.9 15.6 4.7042
111.3 15.1 4.28677
111.6 15.0333 4.28628
111 15.1667 4.28527
110.1 15.9 4.62349
110.7 15.2333 4.27874
108.6 17.1 4.76696
108.6 16.5 4.7688
110.4 15.3 4.27068
110.1 15.3667 4.26153
109.8 15.4333 4.25678
109.5 15.5 4.25735
109.2 15.5667 4.25775
108.9 15.6333 4.25752
108.6 16.2 4.59124
108.6 15.7333 4.26177
107.1 17.4 4.8151
107.4 16.8 4.786
108.3 15.8333 4.27139
108 15.9 4.28023
107.7 15.9667 4.28791
107.4 16.0667 4.29955
107.1 16.1667 4.30483
106.5 16.8 4.65166
106.8 16.2333 4.30721
106.5 16.3 4.31133
106.2 16.4 4.31733
105.9 16.4667 4.31963
115.5 15.6 4.64551
115.5 16.8 4.7009
113.1 16.5 4.70422
113.1 15.9 4.72321
113.1 15.3 4.6533
112.2 14.9 4.27337
111.9 14.9667 4.28321
99.9 29.4 8.0271
99.3 30 8.5959
99.3 29.1 8.8261
99.9 28.2 7.8252
99.9 26.1 6.2456
99.6 26.7 7.5168
98.4 26.1 9.062
99.9 25.2 5.5126
99.6 30.6 8.0622
100.2 30.3 7.283
100.8 27.3 5.5397
99.3 27.3 8.5088
98.7 27 9.1974
99.3 30.9 8.1196
99 30.3 8.58637
100.2 30 7.382
99.3 28.5 8.8362
99 31.5 7.8404
98.1 32.4 7.36843
98.1 30.3 8.83528
98.4 24.9 7.6424
97.8 25.5 9.2461
97.8 24.3 7.6288
97.2 24.9 9.2677
96.9 24.3 8.829
96.9 32.7 7.49958
96.9 23.7 7.7655
96.6 22.2333 4.74495
96 23.7 8.6993
95.4 22.8 7.322
96 24 9.1453
95.4 23.7 9.0609
94.2 23.4 9.089
102 29.7 4.7668
101.7 28.8 5.00342
101.4 29.1 4.958
101.4 29.7 4.6666
101.1 29.7 4.94
101.1 29.1 5.2592
100.8 29.4 5.8097
100.5 29.1 6.6973
100.5 30 6.5915
101.1 28.5 5.2652
100.2 26.4 5.9597
98.7 24.3 6.0016
98.4 23.7 5.4321
97.5 23.1 5.5158
97.2 22.4667 4.74329
96.9 22.3333 4.74175
96.3 22.1 4.75551
96 22 4.76195
95.7 21.9 4.76844
95.4 21.8333 4.77236
95.1 21.745 4.7681
94.8 21.6667 4.76496
94.5 21.6 4.76086
94.2 21.5333 4.75626
99.5667 21.6 4.90193
99.6667 21.3 4.87481
100.2 21.6 5.3777
99.4667 21.9 4.91618
99.3333 22.1667 4.91521
99.9 23.4 5.35733
99.3 24 5.1993
100.2 25.2 5.4073
99.2 22.4 4.90559
99.155 22.655 4.88568
98.855 22.955 4.85907
98.7 23.4 4.891
98.1 23.1 4.84614
98.6 22.955 4.8305
98.3667 22.955 4.8032
98.1 22.7667 4.77768
97.8 22.7 4.7606
97.5 22.6 4.74765
101.4 21.6 5.40979
101.1 25.2 5.40879
101.7 24.3 5.27257
102.3 24 5.05049
101.1 23.4 5.44938
101.1 27.3 5.3181
101.1 20.4 5.30243
100.8 25.2 5.42649
100.8 20.4 5.2761
100.8 26.7 5.4191
101.1 26.7 5.36759
100.5 26.1 5.4671
100.5 25.5 5.4055
100.033 20.4 4.73328
100.2 20.1 4.67699
100.2 25.5 5.4593
99.9 20.7 4.78808
99.745 21 4.83564
99.9 31.5 6.9749
100.8 30.6 5.4279
101.1 30 4.823
99 32.4 6.992
99 33.9 5.35246
96.6 37.8 6.49534
96.6 36 6.76793
98.1 34.5 5.5396
97.5 33.3 6.84887
96.6 34.2 6.89555
96.6 36.9 6.788
99 34.5 4.98242
102 30.3 4.6825
101.4 30.9 4.3846
101.4 30.3 4.4665
101.7 30 4.65004
101.4 30 4.556
101.1 30.6 4.6631
95.4 38.7 7.35872
96 37.8 6.8362
96 36.9 7.3181
95.4 36.3 7.73535
96 34.8 7.22484
95.1 38.1 7.2157
94.5 37.2 8.0826
94.5 36.6 8.22514
112.2 29.1 4.78475
111.6 30 4.75723
111.3 28.5 4.59024
110.1 30.9 4.90256
110.1 29.1 4.47398
109.5 29.1 4.372
108.6 28.5 5.2365
108.3 29.4 4.3989
108 28.5 5.33509
107.4 29.1 5.0331
108.9 28.8 4.65
111.3 26.4 4.5588
110.1 26.4 6.4676
110.7 25.5 5.6978
110.7 27.3 4.7477
110.1 27 6.1046
110.1 25.5 6.3699
109.8 25.5 6.5043
109.5 27.6 6.1482
109.5 27.3 6.4247
109.2 27 6.6324
109.2 25.2 6.3384
109.5 25.8 6.685
108.9 26.1 6.7053
108.9 27.3 6.5171
108.6 27.6 6.3257
108.3 27 6.4135
108.6 25.5 6.3261
108.3 26.4 6.4279
112.2 27.9 4.66774
111.9 27.6 4.56138
111 27.6 4.4317
111.6 26.7 4.3947
111.3 25.5 4.5726
110.7 28.2 4.4384
110.7 27.9 4.4452
110.4 27.6 4.8446
109.5 28.5 4.6631
109.8 28.8 4.3997
108.3 28.2 5.711
108 27.9 5.8756
116.1 21.3 4.70646
115.5 24.9 4.7167
115.5 23.4 4.74343
114.6 27 4.7505
114.6 26.7 4.7796
114 26.7 4.78029
113.7 27.6 4.79828
113.1 28.5 4.78781
112.8 28.2 4.78859
109.8 25.8 6.6238
109.5 26.1 6.7418
108.6 26.7 6.6009
111.9 30.3 4.7074
111.6 36.9 5.2449
110.7 36.6 5.1559
111.6 35.7 5.255
111 32.1 5.8206
111 36.3 5.2862
111.9 36 5.397
110.4 33 6.152
110.4 32.4 6.117
110.1 33.9 5.7303
110.7 33.3 5.9933
110.1 33.3 6.1062
110.7 31.8 5.7333
109.8 33.3 6.0839
110.1 32.1 5.9884
109.2 32.7 5.9494
109.5 32.1 5.8173
109.5 33.9 5.7222
109.8 33.6 5.9878
108.9 33.6 5.6807
108.3 33.6 5.2595
108.6 33.3 5.5929
112.8 36.3 5.2548
112.5 36.3 5.3506
112.5 35.4 5.1302
111.9 36.9 5.2583
98.7 28.8 9.2989
98.1 29.1 9.39156
97.2 29.4 9.4024
97.2 27.3 10.0312
98.4 27.9 9.5751
98.7 27.6 9.3487
97.8 27 9.82897
98.1 26.7 9.6422
97.2 25.8 9.8667
96.6 26.4 10.1856
96.6 24.9 9.6733
96 24.6 9.7362
96 25.2 10.0408
95.1 25.5 10.3068
95.1 24.6 9.95819
118.2 52.2 6.68881
115.2 53.7 6.57014
117.3 51.3 5.80746
117.6 49.2 5.19081
116.7 49.5 4.9103
115.8 51 5.25832
117.3 56.0667 7.56962
117 56.0333 7.4389
117.6 55.5 7.88957
116.4 55.2 7.3858
117.9 54.6 7.956
105.9 50.1 4.82965
105 49.8 5.20703
105.6 51 5.08777
105.6 54.3 4.94467
105.3 53.1 5.14095
104.4 54.3 5.1391
103.8 52.8 5.3275
103.8 49.5 5.43265
104.4 48.6 5.24448
103.8 48.6 5.37
102.9 49.5 5.52714
102.6 48.3 5.50451
100.5 49.2 5.5649
99.3 49.5 5.43275
99.6 47.7 5.4431
100.2 47.7 5.44148
98.4 49.2 5.8768
98.7 47.4 6.5811
99 49.5 5.4021
97.8 48.3 7.0979
97.8 49.2 6.6392
97.2 48.9 7.18543
96 49.8 7.27322
100.2 43.8 5.2019
99.3 44.4 6.5109
99 44.1 6.7308
99.9 46.5 5.421
99 45.9 6.7331
99.9 45 5.64213
100.5 44.4 4.9913
98.7 45.6 7.0342
99.6 43.2 5.9614
99.3 47.4 5.7441
98.7 43.2 6.64309
99 42.3 6.13398
96.9 41.1 6.63177
100.2 46.8 5.3414
103.5 47.1 5.21386
102.9 45.6 4.99782
101.7 45.9 5.24597
101.1 45 5.03834
100.5 45.3 5.1087
98.1 45.3 7.2707
97.5 44.4 7.28873
95.7 42 7.12319
97.8 47.7 7.2588
98.4 50.1 5.4476
97.2 49.8 6.8448
97.8 51 5.3503
97.2 51 5.85534
96.3 50.7 6.919
96.6 51.9 5.62439
95.1 52.2 6.4431
95.7 51.3 6.8467
96.3 51.3 6.5026
95.7 52.8 5.2473
95.1 52.5 6.1141
102 53.1 5.25594
99.6 52.5 5.22688
98.1 53.1 4.98979
98.4 51 5.31454
97.5 52.8 5.00478
96.9 52.5 5.0513
96.3 53.1 4.8957
96 50.4 7.11346
95.4 50.7 7.11255
116.1 49.5 4.73339
110.1 46.5 5.1009
110.1 41.4 5.314
109.5 45.9 5.4406
110.1 45 5.2932
110.1 41.7 5.155
110.1 40.8 5.3853
109.5 40.5 5.4043
109.5 46.2 5.3808
109.2 45 5.2775
109.5 41.7 5.3147
109.8 41.1 5.4419
108.6 45.3 5.177
109.2 41.1 5.40612
108.6 39.9 5.0523
108.9 44.7 5.0653
108.3 41.1 5.2534
108.9 41.4 5.3637
108 40.8 5.1446
108 39.9 4.8976
114.3 54.3 6.4292
113.4 52.8 5.72265
113.7 52.2 5.54148
114.9 55.5667 6.40397
114.6 55.4667 6.23647
114.6 54.9 6.5773
114.3 55.3667 6.06673
114 55.2333 5.89714
114 54.6 6.2935
113.1 54 5.8403
112.5 51.6 5.12783
111.6 53.4333 4.48965
111.9 53.4 5.00734
113.7 55.0667 5.72297
114 51 5.02277
113.1 53.1 5.72884
113.4 54.9 5.54703
113.1 54.755 5.36894
112.8 54.4667 5.19484
112.5 54.2333 5.02141
112.8 53.4 5.6923
112.5 53.7 5.37996
112.2 53.9667 4.84651
111.9 53.7 4.6698
116.7 56 7.30309
116.4 55.9667 7.16522
115.5 55.7667 6.72544
115.2 54.9 6.8934
116.1 55.9 7.02415
115.8 55.8333 6.87875
115.2 54.3 6.78672
115.2 55.6667 6.5666
114.9 54.6 6.71976
125.733 49.5 8.44971
125.9 49.8 8.5728
125.1 50.1 9.7
