# Created by <snake>.
1626
0.814270 -0.612050 0.037946
0.525160 -0.823116 0.227974
-0.495496 -0.413037 -0.972307
-0.568358 -0.363714 -0.984998
-0.566681 -0.277144 -0.932989
-0.256392 0.994891 -0.842650
-0.285288 0.962455 -0.939782
-0.647194 0.792745 -1.125096
-0.721691 0.522865 0.246055
-0.653788 0.517052 0.300033
-0.801193 0.483995 0.277786
0.733588 0.927717 -0.022613
0.436670 -0.988297 -1.000058
0.194973 -0.975333 -0.818948
0.349957 -0.894633 -1.018340
-1.006644 0.886336 -0.314817
0.619949 -0.733466 1.116953
0.838615 -0.789472 1.137355
-1.110675 -0.591557 0.841942
-1.130888 -0.707844 0.851749
-1.109692 -0.772363 0.956937
1.111501 -0.594922 -0.841781
1.130690 -0.709033 -0.854617
-0.580460 -1.110420 -0.777377
-0.517653 -1.082869 -0.681481
-0.748249 1.078521 -1.011950
-0.826611 1.107892 -0.958905
-0.965547 -0.221860 0.678300
0.960302 -0.217976 -0.669230
-0.799616 0.663617 -1.127900
-0.720381 0.583448 -1.107135
-0.745936 0.498933 -1.085860
-0.833912 0.515075 -1.090694
-0.883923 0.628704 -1.112696
0.734881 -0.090877 -0.607374
0.529521 0.810298 0.218445
0.677409 0.928519 0.131441
0.661898 0.895176 0.052467
-0.947595 -0.510248 -0.359666
-0.952765 -0.455343 -0.423279
-0.999838 -0.465023 -0.493305
0.956334 -0.515355 0.367394
0.539514 1.017916 -0.457837
-0.306356 0.578553 -0.574792
-0.260874 0.662751 -0.543773
-0.374029 0.555120 -0.531321
0.232117 -0.863740 -0.979745
0.178490 -0.933471 -0.909004
0.052831 -0.910233 -0.883985
-0.018034 -0.858288 -0.921652
-0.021051 -0.759087 -0.933479
0.056267 -0.703626 -0.920729
0.176614 -0.736739 -0.964932
-0.798078 1.135984 -0.851688
-0.677100 1.128564 -0.832440
0.251510 0.992792 0.843528
0.297310 1.013173 0.749814
0.234598 0.969313 0.673611
1.094680 0.527290 -0.749507
-1.093457 0.523855 0.746729
0.607843 -1.114665 0.840176
0.449018 -1.049550 0.639389
0.452026 1.050398 0.638260
0.407972 1.054197 0.738668
0.488783 1.082763 0.831608
0.604833 1.113855 0.841486
-0.456448 1.056694 -0.905236
-0.391003 0.987672 -0.975931
-0.455565 0.917402 -1.051914
-0.573200 0.958762 -1.073689
0.813917 -0.502500 1.088311
0.694740 -0.463997 1.067597
0.628407 -0.545459 1.079917
0.682830 -0.650281 1.116756
0.793641 -0.685291 1.131346
0.856476 -0.618615 1.115148
-0.361503 1.037982 0.748865
-0.440603 1.057633 0.686005
0.802355 0.497598 1.087230
0.694553 0.086000 -0.631224
0.574539 0.175257 -0.859573
1.048048 0.828932 -0.388036
0.652702 0.058769 -0.888714
0.626479 0.048060 -0.720335
-0.769152 0.301540 -0.465530
-0.824619 0.368495 -0.407457
-0.927600 0.222795 -0.605612
-0.667623 1.076578 -0.996791
-0.614755 1.098881 -0.924421
-0.533835 1.071561 -0.936740
-0.541454 0.648851 -1.083509
-0.579990 0.735608 -1.107869
-0.421923 0.646865 -1.041157
-0.276915 -0.493118 0.737337
-0.311359 -0.456907 0.810606
0.785191 -0.385045 -0.387021
0.323129 -0.741111 1.022267
0.483328 -0.727930 -0.292760
-0.703793 -0.591988 -0.155486
-0.868716 0.448099 -1.063657
0.766190 -0.574810 0.145127
0.650827 -0.630555 0.155826
0.601736 -0.589243 0.266566
0.675887 -0.514228 0.286323
1.068300 -0.998088 0.635660
-1.068073 -0.998984 -0.637155
-1.044340 0.975232 -0.514294
-0.969762 1.019264 -0.445056
1.006196 1.081855 -0.741759
1.034912 1.044785 -0.658839
-0.801114 -0.091179 -0.596668
0.465981 1.056088 -0.916673
0.457660 0.995402 -1.003911
0.372787 0.909845 -1.021802
-0.359532 1.035232 0.844575
-0.454606 1.052041 0.916164
-0.450740 0.994324 1.001461
-0.351918 0.903128 1.015791
-0.832171 0.404807 0.373193
-0.775452 0.436886 0.333293
-0.689978 0.449549 0.350570
-0.652260 0.411260 0.414302
0.931647 1.057301 0.486119
-0.921951 1.073899 -0.523255
-0.929757 -1.059351 -0.489541
0.928778 -1.059655 0.489236
-0.506061 0.534513 1.036524
-0.507867 -0.533879 1.037005
0.477770 0.447105 -0.981964
0.508986 0.517740 -1.031006
-0.829188 1.127995 -0.671798
0.557253 -1.080033 0.614767
0.677059 -1.129963 0.776195
0.656199 -1.116367 0.673584
0.752465 -1.117135 0.613956
0.659622 1.127123 0.775447
0.830738 1.127166 0.667363
0.558406 1.080777 0.616299
0.653804 1.116666 0.678089
0.749159 1.118459 0.621093
-0.577359 -1.086944 -0.619098
-0.676316 -1.129495 -0.765312
-0.667522 -1.117501 -0.668356
-0.755112 -1.117126 -0.613175
1.006150 -0.272960 0.787188
-1.039936 0.867670 -0.383450
-1.066237 0.808301 -0.434436
-1.092091 0.833919 -0.519695
-1.050296 -0.577249 -0.501675
0.482992 -0.412874 0.964453
0.542189 -0.207766 0.744799
0.490690 -0.274245 0.753742
0.477867 -0.291487 0.830376
0.829794 0.712329 -1.133461
0.829763 -0.464377 0.307361
0.902650 -0.504451 0.309805
-1.007926 0.422817 0.553892
-0.948133 0.387859 0.483781
-0.898787 0.318328 0.493465
-0.277268 0.942533 -0.579876
-0.337476 0.942796 -0.524714
-0.327282 0.875609 -0.468012
-0.909083 -0.311199 0.509338
-0.944449 -0.377624 0.488710
-1.003831 -0.415016 0.553214
-0.810020 -0.448666 -0.320659
1.035162 0.392959 0.667309
0.995053 0.312530 0.648632
0.967747 0.345387 0.555132
1.015666 0.425578 0.568928
0.548373 1.098570 -0.726651
-0.538937 1.094842 0.717663
1.070090 0.447804 0.758511
-1.003310 0.387788 -0.581585
-0.952018 0.307217 -0.566518
-0.418366 -0.800396 -1.060847
-0.496710 -0.706463 -1.080454
-0.447051 -0.593955 -1.034528
-0.332871 -0.578445 -0.973677
-0.268392 -0.662546 -0.980179
-0.306388 -0.768719 -1.018390
1.089147 0.865409 -0.987578
-0.237273 -0.963431 -0.656218
-0.297416 -1.011368 -0.736032
-0.259125 -0.997747 -0.832498
-0.162012 -0.961149 -0.835413
0.621461 0.729546 1.116906
0.688783 0.641909 1.116047
-0.621633 -0.717316 -1.115645
-0.753491 0.368202 1.040935
-0.632347 0.356087 1.008816
-0.587580 0.418254 1.019871
-0.588844 0.497688 1.052639
-0.816282 0.471085 1.078196
-0.813481 -0.479655 1.081142
-0.591143 -0.498834 1.053803
-0.589220 -0.419464 1.021049
-0.632889 -0.358934 1.010288
-0.753353 -0.381569 1.045944
0.753221 0.370250 -1.041687
0.627372 0.360268 -1.008883
0.596613 0.508417 -1.058975
0.814825 0.470123 -1.077961
-0.913168 0.403508 -0.427079
-0.936799 0.491867 -0.363948
-1.009700 0.459474 -0.519339
0.288547 -1.011685 -0.807120
-0.356949 -0.683262 0.447410
-0.397971 -0.736331 0.383374
0.480082 -0.805679 -1.081604
0.518717 -0.706841 -1.087388
0.629937 -0.723575 -1.118081
0.686433 -0.824341 -1.130511
-0.484561 -0.810780 1.082832
-0.519799 -0.711906 1.088431
-0.631488 -0.724360 1.118472
0.900740 -0.291219 0.518773
0.945491 -0.268083 0.592770
1.021097 -0.483709 0.519907
0.960583 -0.447556 0.442614
0.529776 -0.281332 0.903496
0.546496 -0.349785 0.965157
0.656611 -0.361445 1.019163
0.747229 -0.287212 1.008888
0.714894 -0.373869 -0.415356
0.644727 0.579931 -0.232424
0.703990 -0.257334 -0.522159
0.618212 -0.245040 -0.592587
0.684361 -0.324980 -0.475892
-0.420545 0.965644 0.477306
-0.395363 1.010249 0.589608
0.949190 1.080413 0.580578
0.914537 1.110963 0.657248
-0.537622 -0.352003 -0.571295
-0.837774 -0.180604 -0.561143
0.257149 -0.676766 0.980308
0.173211 -0.559606 0.816870
0.472567 -0.323702 0.692433
-0.429226 0.507954 -0.522100
-0.807587 0.762322 -1.138514
-0.746038 0.810847 -1.137504
-0.686050 0.327220 -0.472886
-0.619990 0.322437 -0.522694
1.081815 -0.558321 -0.930032
-1.081021 -0.554759 0.929348
0.575731 0.773409 0.141139
0.612043 0.830111 0.059012
0.275644 -0.596931 0.952373
0.318031 -0.482973 0.885378
0.250850 -0.540221 0.886978
-0.474620 0.442476 -0.977401
-0.383034 0.483908 -0.944750
-0.236425 0.775713 -0.991830
-0.197074 0.874278 -0.961810
1.104472 -0.958042 0.713329
-1.103143 -0.960858 -0.712451
-1.091680 -0.611270 -0.602392
0.922986 0.317385 -0.518602
1.005288 0.412238 -0.559430
0.947914 0.392197 -0.479262
1.059286 0.432811 0.863254
-1.024814 -1.070762 0.800066
1.057165 -0.590842 0.508401
-0.631639 0.009205 0.855178
-0.650411 -0.076110 0.891487
-0.758915 -0.043232 -0.935300
-0.696145 0.116852 0.616853
-0.716509 -0.205763 0.553970
0.336759 0.693301 -1.018806
0.380117 0.618439 -1.014547
0.490747 -0.435617 -0.982764
0.418547 -0.421615 -0.922114
0.627881 -0.505235 -1.066784
0.243693 0.519747 -0.734808
0.276751 0.550872 -0.635329
0.612772 0.802222 -0.011070
-0.315471 -0.563203 0.581493
0.012221 -0.649526 -0.691752
0.006431 -0.724093 -0.629446
0.082934 -0.765354 -0.601148
0.171280 -0.699572 -0.585094
-0.860566 0.172829 -0.576483
-0.828626 0.090035 -0.602451
-0.730000 0.106392 -0.603503
-0.715784 0.185063 -0.568018
-0.793453 0.217483 -0.528754
0.518108 -0.794313 -0.232565
-0.783237 -0.128906 0.580760
-0.858153 -0.188295 0.565583
-0.926141 -0.166483 0.647809
-0.815772 0.160872 0.566490
-0.775812 0.094809 0.595435
-0.886451 0.156458 0.605598
-0.910259 0.100025 0.664979
-0.838812 0.039808 0.619616
-0.833135 -0.039577 0.617126
0.163009 0.622557 0.906414
0.202504 0.556084 0.857949
0.294360 0.519312 0.903997
0.330025 0.585124 0.975686
0.246644 0.654534 0.967048
-0.422107 -0.999631 0.536923
-0.530322 -1.011354 0.452456
-0.397952 -0.846119 0.385345
-0.361070 -0.923804 0.479291
0.034231 0.756082 0.933899
0.107244 0.841643 0.942883
-0.568978 0.284463 0.939363
-0.613331 0.215166 0.928496
-0.592004 0.150697 0.864492
-0.568523 0.155811 0.769300
-0.543515 0.220776 0.716709
-0.499316 0.283605 0.707777
-0.570117 -0.206748 0.685551
-0.589100 -0.128882 0.741760
-0.593596 -0.135167 0.853177
-0.614633 -0.210079 0.926541
-0.570542 -0.279169 0.937083
0.190222 0.830175 0.552657
0.239043 0.734781 0.523241
0.243714 0.639614 0.575027
0.163863 0.963637 0.825239
0.160797 0.956219 0.723147
0.091577 0.919374 0.883729
0.215788 0.619310 -0.616057
0.259598 0.674566 -0.536952
0.212115 0.766295 -0.534268
0.907568 0.687543 -1.117987
1.047378 0.799197 -1.051037
-0.193165 0.550102 0.751027
-0.206976 0.590276 0.656246
-0.937028 0.425608 -1.031153
-0.935814 0.334417 -0.990595
-1.007771 0.496539 -1.010706
-0.068269 0.627645 0.864544
-0.112220 0.588053 0.798371
0.203896 0.603046 -0.914278
0.178308 0.743164 -0.966810
0.240856 0.674141 -0.972233
-0.175815 0.737124 0.564995
0.167032 0.632058 0.641140
0.201634 0.561583 0.706545
0.156634 0.566500 0.783559
0.078187 0.600789 0.801459
0.232484 0.934911 -0.608294
0.258231 0.850495 -0.512146
0.431294 0.983139 -0.495808
0.803867 0.575384 -0.141111
0.738995 0.539663 -0.214105
0.767219 0.484242 -0.279096
-0.503900 -0.318980 -0.648801
-0.446170 -0.355352 -0.687971
-0.506927 -0.264198 -0.849476
0.490087 0.329872 -0.654576
0.427077 0.392662 -0.660561
0.794105 0.383845 -0.388383
0.726659 0.441765 -0.340844
0.670485 0.183266 -0.596341
-0.289805 -1.006706 0.726179
-0.366822 -1.012809 0.923527
0.973165 0.851063 0.205719
0.875319 0.991304 0.269356
-0.870453 -0.992911 -0.269403
-0.973809 -0.852084 -0.208053
0.878031 -0.990576 0.269870
0.973054 -0.852646 0.206504
0.829757 -0.967432 0.177381
0.883812 -0.906624 0.023851
0.906954 -0.914428 0.131411
-0.835234 -0.964718 -0.172563
-0.883299 -0.906975 -0.023454
-0.908068 -0.913643 -0.131979
0.908220 0.913042 0.130813
0.880524 0.909479 0.028276
0.796449 0.936148 0.024595
0.761996 0.948405 0.109275
0.835335 0.966005 0.176253
-0.475929 0.361839 -0.921434
0.812294 -0.276499 0.486392
0.760805 -0.355480 0.418720
0.642615 -0.406516 0.425882
0.565546 -0.382828 0.512743
0.591117 -0.285634 0.582071
1.010736 0.362028 0.923359
0.965432 0.242990 0.906019
1.038519 -1.037571 -0.645337
-1.041531 -1.032818 0.639649
-1.007349 -1.075509 0.699428
-0.671241 -0.589337 0.192560
-0.754773 -0.536551 0.212170
-0.783038 -0.479500 0.283174
0.669768 -0.217152 0.572800
0.631667 -0.996995 -0.330698
0.602267 -0.936111 -0.241412
0.530162 -0.876844 -0.253885
1.073201 1.005497 -0.887691
1.061338 0.961145 -0.979910
1.012885 1.075282 -0.851647
-0.838503 -0.104440 -0.943132
-0.873869 -0.187872 -0.958322
-0.468571 -0.926021 -0.374940
-0.570327 -1.049836 -0.506712
-0.481078 -0.994981 -0.467724
0.474419 -0.930242 0.373928
0.533730 -0.907136 0.280858
0.616035 -0.950548 0.251997
0.566604 -1.047481 0.503868
0.483978 -0.994710 0.464322
1.105257 0.561018 0.771108
1.089192 -0.549033 0.665160
1.110972 -0.585122 0.761514
1.128583 -0.667585 0.781604
1.094937 -0.628397 0.599074
-0.406055 0.366180 0.777500
-0.435275 0.355074 0.863254
-0.492503 0.301052 0.878101
-0.502483 -0.262637 0.743973
-0.492319 -0.286440 0.856594
-0.437461 -0.350294 0.858907
-0.993037 0.242682 0.760089
-0.973409 0.207797 0.853068
-0.959678 0.274248 0.936179
-1.046584 0.418728 0.893015
-1.059146 0.413414 0.797345
-1.025138 0.328172 0.748608
0.994650 0.243638 -0.776209
0.973458 0.207662 -0.852705
0.959182 0.273263 -0.936143
1.046546 0.418778 -0.893190
1.059457 0.414259 -0.796890
1.019747 0.319960 -0.732472
-0.721292 -0.943248 -0.122743
0.610278 -0.734912 0.083561
0.720607 -0.941243 0.116689
0.633056 -0.912833 0.159582
0.576332 -0.825135 0.146939
-0.752534 0.546859 1.100481
-0.666340 0.553206 1.090635
-0.668493 0.648494 1.114053
-0.752855 0.645127 1.123520
0.750037 0.545086 -1.099810
0.663502 0.553839 -1.090258
0.669146 0.648158 -1.114101
0.756244 0.641881 -1.123102
-0.269806 -0.973469 0.644121
-0.293873 -0.934734 0.554211
-0.236247 -0.868737 0.538325
-0.663614 -0.542721 -0.261479
-0.569041 -0.605824 -0.284691
0.579891 -0.208543 -0.895922
0.661555 -0.100734 -0.908185
0.757954 -0.172084 -0.966942
0.776216 -0.280744 -1.008875
0.697343 -0.339574 -1.020877
0.587303 -0.298253 -0.959418
0.536956 -0.991141 -1.041848
0.556187 -0.903298 -1.089966
0.650373 -0.902887 -1.112784
0.571258 1.090543 -0.915575
0.597722 1.113969 -0.818929
-0.562614 1.088838 0.913290
-0.593132 1.112419 0.826373
-0.652878 0.994170 0.307118
-0.557276 0.974331 0.354886
0.861087 0.609963 1.112574
0.845470 0.790327 1.136713
0.801997 0.676094 1.129867
0.427288 0.862455 -0.363011
0.324930 0.848427 -0.455577
0.380200 0.809623 -0.393080
0.831519 -0.977443 -0.205776
-0.221650 -0.787789 0.525779
-0.282029 -0.707485 0.500758
-0.263774 -0.632927 0.563865
1.119934 0.648682 0.707595
1.103548 0.662720 0.604822
1.079585 0.519427 0.900968
1.137425 0.767023 0.746675
0.958426 0.475350 1.039565
0.864021 0.436993 1.060639
0.848684 0.338465 1.026318
0.976804 0.405470 0.994628
0.942268 -1.041479 -1.020128
0.908913 -1.082730 -0.980522
-0.458571 -0.666864 0.355457
-0.592658 -0.603802 0.260532
0.997360 0.981927 -1.036221
-0.797748 -1.029203 -0.332861
-0.832325 -1.065595 -0.437611
-0.750271 -1.087182 -0.502098
-0.663066 -1.054218 -0.445129
-0.685387 -1.015736 -0.333987
0.794888 -1.022757 0.316014
0.829769 -1.065113 0.435505
0.748038 -1.087215 0.502773
0.660142 -1.053235 0.444406
0.682573 -1.012421 0.327859
-0.714824 -0.921980 -0.030293
-0.763505 -0.955513 0.134414
-0.793084 -0.936245 0.025013
-0.617133 -0.737180 0.055550
-0.649910 -0.878900 0.012023
-0.615934 -0.819886 0.004936
0.767397 -0.953939 -0.127449
0.797530 -0.936097 -0.024170
0.716010 -0.921740 0.021678
0.665121 -0.927635 -0.146367
0.020654 0.866768 -0.917530
-0.089524 0.910713 -0.894315
-0.157777 0.962464 -0.819431
-0.153624 0.949974 -0.710518
0.613217 -0.777453 -0.004083
0.715373 -0.976397 -1.096177
-0.432766 -0.381425 -0.895931
-0.452235 -0.322601 -0.833589
-0.419345 -0.355480 -0.756602
-0.359775 -0.413178 -0.768651
-0.362920 -0.424397 -0.856515
0.129866 0.595134 -0.851249
0.152795 0.570681 -0.765250
0.128411 0.623134 -0.679193
0.137998 -0.621249 0.674651
0.148899 -0.679161 0.611658
0.997621 -0.590605 0.367840
1.047838 -0.727145 0.394616
1.011194 -0.669122 0.333929
-1.106964 0.610489 -0.674242
-1.100448 0.670912 -0.586245
-1.113274 0.793721 -0.591619
-1.127264 0.857198 -0.685474
1.054475 -0.814236 -0.402158
1.038369 -0.702294 -0.380868
0.988395 -0.680477 -0.272988
0.975970 -0.746576 -0.201993
0.962294 -0.976810 -0.347607
-1.054530 -0.814940 0.402421
-1.038563 -0.702960 0.381028
-0.986157 -0.678260 0.269464
-0.974457 -0.744131 0.198934
1.081774 -1.001468 -0.859771
1.039311 -1.032879 -0.921995
-1.109543 -0.852596 0.948547
-1.075209 -1.009241 0.867178
-0.393463 1.047830 -0.730474
-0.444631 1.069870 -0.805988
-0.425696 1.040838 -0.640448
-0.605905 0.808379 0.062855
-0.639918 0.906635 0.136228
-0.612237 0.937655 0.232698
-0.535920 0.904059 0.274670
-0.489174 0.792432 0.271071
-0.552462 0.691732 0.226169
-0.619133 0.655308 0.167052
-0.604738 0.725245 0.108344
0.737805 0.909723 -1.123307
0.558144 0.990429 -1.050079
0.630368 1.060440 -1.007208
-0.719450 0.888568 1.126442
-0.556310 0.993456 1.047256
-0.625558 1.059173 1.007160
0.629371 0.950646 0.237952
0.544131 0.905549 0.266504
0.480709 0.927763 0.364274
0.486353 0.995944 0.464313
0.569796 1.048738 0.504258
1.134585 -0.848513 0.836288
-0.917908 1.078375 -0.983004
-0.982552 0.683805 -0.256924
-0.930398 0.628694 -0.199478
-0.937851 0.701305 -0.127718
-0.977217 0.761545 -0.199949
0.914089 -1.109163 -0.911602
0.983121 -1.086433 -0.890324
1.002483 -1.083075 -0.730723
-0.337369 0.708463 1.022405
-0.380484 0.625417 1.017211
0.981556 0.679745 0.257715
0.935967 0.633286 0.204807
0.939597 0.705281 0.128359
0.974768 0.756370 0.194828
-0.338545 0.773787 -1.031099
-0.395845 0.725743 -1.048098
-0.166680 -0.792835 -0.967270
-0.177521 -0.871754 -0.955220
-0.252171 -0.912009 -0.966210
0.685206 -0.655247 -1.118062
-0.670171 -0.552554 1.091200
-0.758959 -0.546723 1.100843
-0.775412 -0.635774 1.122710
-1.037789 1.027290 0.610279
-0.995660 1.074674 0.655752
0.509826 0.689920 -1.081941
0.569710 0.909749 -1.091935
0.632692 0.852756 -1.118579
0.599547 0.729606 -1.112007
-0.509977 0.690196 1.082033
-0.568505 0.912422 1.090788
-0.627936 0.851011 1.117820
-0.597401 0.729483 1.111487
0.922405 -0.931703 -0.198413
0.936503 -0.875710 -0.130908
-0.936953 -0.875181 0.131430
1.120012 -0.923819 -0.745364
1.122347 -0.884750 -0.885820
1.134469 -0.863966 -0.797562
-1.119988 -0.923871 0.745231
-1.122997 -0.881863 0.885369
-1.134397 -0.864427 0.798018
-0.963211 -0.975383 0.346511
-0.923430 -0.930675 0.198259
-0.834735 -0.977045 0.206206
0.825619 0.975657 -0.198295
1.001660 0.903898 -0.320146
0.977266 0.972426 -0.365490
-0.958873 -1.105291 0.852565
-0.873048 -1.132790 0.810557
-0.791399 -1.131721 0.881303
0.683739 1.011729 0.325449
0.660378 1.052928 0.443412
0.746379 1.087350 0.503651
0.828013 1.065267 0.435477
0.791531 1.022455 0.315157
-0.681332 0.913512 -0.075917
-0.815952 1.077216 -0.468015
-0.765795 1.045782 -0.378595
-0.672693 1.038464 -0.397877
-0.497181 1.014751 -0.492088
-0.470593 0.844501 -0.305795
-0.443442 0.891832 -0.366772
-0.506887 0.969121 -0.396349
-0.594389 0.990021 -0.349038
-0.603186 0.950560 -0.265802
-0.530351 0.866360 -0.245262
0.834860 0.803633 -1.137535
0.815987 0.877926 -1.131765
0.885090 0.940172 -1.107171
0.960393 0.924676 -1.087824
0.978901 0.838047 -1.097581
0.111062 0.836924 0.597339
-0.096761 0.786810 0.594144
0.092781 0.914929 0.676177
0.046991 0.637902 -0.870547
-0.125416 0.737755 -0.948474
-0.009897 0.768334 -0.934304
0.072285 0.710484 -0.926657
-0.807878 0.061319 -0.939441
0.468923 -0.461328 0.529001
0.450283 -0.555863 0.454643
0.777822 -0.639392 -1.123461
0.785592 -0.552087 -1.103223
0.833454 -0.502815 -1.087020
0.922096 -0.507246 -1.068568
-1.053706 0.812544 0.399729
-0.975690 0.751379 0.199290
-0.987736 0.684962 0.268196
-1.038239 0.705928 0.378725
0.560704 -0.179064 -0.743924
0.606653 -0.175185 -0.663954
0.663769 -0.106914 -0.646702
0.828644 0.944263 1.113578
0.578297 0.925845 1.089018
0.668073 0.843784 1.126100
0.783710 0.864125 1.134437
0.088041 -0.832529 -0.604102
0.135341 -0.952669 -0.743459
0.969588 -0.195753 -0.850195
0.995354 -0.248974 -0.759176
1.025807 -0.328956 -0.752155
1.058031 -0.410394 -0.799093
1.052407 -0.447113 -0.907673
0.928834 -0.221035 -0.937584
0.677363 0.534674 0.260354
0.600053 0.606878 0.248825
0.969348 -1.032141 -0.474096
0.914305 -1.030113 -0.397046
0.715287 -1.093079 -0.533927
0.967399 -1.066718 -0.565225
0.967358 1.039562 -0.489082
0.967591 1.068502 -0.571248
0.956947 1.107133 0.732799
1.010574 1.080247 0.758436
0.980319 0.868460 -0.237442
0.918328 0.920118 -0.167794
0.921842 0.866413 -0.055755
0.933328 0.751868 -0.036187
0.849137 1.132508 0.855538
0.836676 1.104630 0.964456
-1.128349 0.671631 -0.756644
-1.139254 0.796532 -0.782812
-1.134506 -0.724373 -0.745809
-1.137459 -0.818061 -0.750401
-1.125234 -0.866460 -0.680564
-1.111816 -0.822280 -0.589418
-1.000235 -0.703750 -1.080902
1.134136 -0.723057 0.742390
1.137905 -0.810088 0.752423
1.125640 -0.864315 0.681099
1.112191 -0.822959 0.591161
0.771566 -1.138867 0.807072
0.752860 1.062685 -0.427642
0.732929 1.028511 -0.341980
0.803232 1.012142 -0.288994
0.797468 -1.013019 -0.290802
0.728807 -1.029858 -0.347018
0.755187 -1.065043 -0.433837
1.000436 -0.400261 -0.966743
0.936606 -0.411330 -1.025322
0.866947 -0.328563 -1.018378
0.944593 -0.106019 0.833802
0.968501 -0.177337 0.755981
0.932233 -0.172390 0.653442
0.607173 -1.060535 -0.997967
0.696155 -1.053605 -1.034412
0.769125 -1.092330 -0.992135
-0.930205 -0.627249 -0.200886
-0.975949 -0.769893 -0.194208
-0.941792 -0.704190 -0.136194
0.927855 -0.623757 0.200822
0.975271 -0.770233 0.192219
0.941284 -0.704402 0.134439
-0.931372 0.886072 0.133389
-0.913673 0.939923 0.199956
-0.164080 -0.945630 -0.687929
-0.114028 -0.949882 -0.763865
-0.006791 -0.935466 -0.788560
0.046031 -0.923730 -0.714836
0.944258 -0.427385 -0.439660
0.994439 -0.416344 -0.532345
0.962716 -0.330005 -0.561900
0.878854 -0.302478 -0.491903
0.865656 -0.377234 -0.415474
0.939237 -1.103956 0.900465
0.906845 -1.039250 1.039307
0.852785 -1.084978 0.998109
-1.118573 0.618863 -0.821583
-1.107139 0.617487 -0.897939
0.619871 1.019219 1.047929
0.715553 1.043809 1.048310
0.738671 1.092972 0.987319
0.645527 1.103136 0.932040
0.570403 1.064635 0.974033
0.769102 -1.125966 -0.906735
0.836086 -1.133435 -0.858244
-0.245997 -0.977735 0.884797
-0.218566 -0.985556 0.787915
0.888875 -1.108784 -0.615535
0.790341 -1.118925 -0.616478
0.773612 -1.133959 -0.706753
0.835949 -1.136885 -0.760908
0.912103 -1.119302 -0.705719
0.559236 -1.099617 -0.710675
0.466701 -1.073862 -0.730458
0.576885 -1.097084 -0.898069
0.625530 -1.120705 -0.801895
0.499638 -1.078322 -0.881413
0.442647 -1.068330 -0.821209
0.368201 -1.037812 -0.849228
-0.020259 0.656842 0.681893
-0.017875 0.736446 0.623151
0.063436 0.763716 0.607095
0.098211 -0.604331 0.841810
-0.017021 -0.618919 0.748014
-1.104072 0.961284 -0.854171
1.044161 0.928434 1.024678
0.995716 0.971684 1.044456
0.933020 0.843572 1.116125
0.271028 0.907648 -0.977555
0.202606 0.841454 -0.974373
-0.615028 0.021270 0.760605
-0.605038 0.096975 0.735057
-0.979128 0.462028 1.019946
-0.924880 0.513318 1.069569
-0.959639 0.630067 1.088548
-1.038950 0.681438 1.046346
-1.084165 0.614229 0.960637
-1.042590 0.489153 0.962525
0.953288 -0.684230 -1.102251
0.987010 -0.610800 -1.068822
1.055898 -0.619117 -1.009139
0.978556 0.461539 -1.020166
0.924113 0.511796 -1.069353
0.959424 0.625939 -1.087665
1.041388 0.680356 -1.043725
1.084642 0.614890 -0.959993
1.042445 0.488987 -0.962656
0.161064 -0.948825 0.699214
0.235720 -0.964134 0.659572
-0.969333 -0.536106 1.055930
-1.049737 -0.615761 1.015571
-1.060373 -0.730263 1.032915
-0.915881 -0.682274 1.114953
-0.995235 -0.589042 -0.364393
-1.047605 -0.727866 -0.393713
-1.011555 -0.669871 -0.334258
0.711039 -0.207465 0.970295
0.784600 -0.151232 0.962181
0.782985 -0.068882 0.941227
0.598734 -0.085821 0.804586
0.574070 -0.157510 0.835868
0.596887 -0.210826 0.913380
-0.681232 -0.834203 -1.129030
0.674779 -0.845035 1.127056
0.833965 -0.937636 1.115503
0.783120 -0.861521 1.134788
1.079346 0.597446 0.961481
1.110861 0.680881 0.928489
1.116615 0.801350 0.939099
1.064883 0.845130 1.027783
1.002911 0.787776 1.086266
0.971544 0.665440 1.090437
1.014937 0.584019 1.039913
0.630210 -0.920010 1.103846
0.473881 -0.890139 1.067507
-0.641351 0.519768 -0.307193
-0.856880 0.549863 -0.211128
-0.865713 0.492798 -0.291773
-0.787876 0.437656 -0.331748
-0.702543 0.463750 -0.327757
-0.970006 -1.032745 0.476614
-0.915489 -1.030142 0.398362
-0.718785 -1.092054 0.528894
-0.779650 -1.123553 0.639690
-0.859577 -1.128754 0.698342
-0.925835 -1.103052 0.635207
-0.975092 -1.063591 0.569153
0.318737 -1.006473 -0.675200
0.412776 -1.039438 -0.653779
0.986419 0.742172 -0.231617
0.941499 0.688964 -0.152307
0.889832 0.598325 -0.173124
0.933145 0.494785 -0.356226
-0.606798 -1.055521 1.004770
-0.532980 -0.989413 1.041624
-0.562180 -0.908650 1.090121
-1.068236 -0.669069 -1.009437
-1.091360 -0.773829 -0.994109
-1.123313 -0.734341 -0.908545
-1.128748 -0.671831 -0.815805
1.114124 0.772693 0.596361
1.075057 0.984969 0.629656
1.111092 0.936635 0.700830
1.129270 0.828110 0.679652
0.143226 -0.941244 0.874509
0.240232 -0.977033 0.880576
0.487122 -1.082924 0.823210
0.455607 -1.049347 0.923680
0.252572 -0.861192 0.988885
0.282326 -0.947859 0.953687
0.371763 -0.975282 0.977837
0.391859 -0.896720 1.034793
0.323358 -0.826211 1.023745
-0.729445 -1.026977 0.339441
-0.753160 -1.064073 0.431522
-0.802143 -1.012086 0.288720
1.004913 0.686565 -0.307347
1.002594 0.599486 -0.370278
1.046670 0.628906 -0.449232
-0.571502 -1.063653 -0.976273
-0.642961 -1.097290 -0.946254
-0.625390 -1.014953 -1.053098
0.562500 -1.061379 0.975242
0.647169 -1.103294 0.932550
0.726213 -1.039393 1.054081
0.646378 -0.998790 1.070481
0.578760 -1.018021 1.035384
-0.749800 0.567500 -0.165299
-0.649151 0.576700 -0.232131
-0.565682 0.652659 -0.242597
-0.608718 0.848199 -0.094833
-0.609598 0.789976 -0.037697
-0.617714 0.713796 -0.089876
-0.571738 0.721994 -0.174444
-0.556471 0.811636 -0.176979
0.206292 -0.888046 -0.574322
0.265208 -0.944174 -0.593416
0.685995 0.197694 0.575957
-0.885061 0.058067 0.910274
-0.942754 0.107624 0.842756
-0.938488 0.070202 0.753685
-0.935576 -0.089728 0.725340
-0.944876 -0.108945 0.835915
-0.887422 -0.053120 0.907483
0.888706 0.066819 -0.909510
0.942501 0.106361 -0.842262
0.941367 -0.098128 -0.838669
0.876820 -0.047961 -0.914360
1.117543 0.929947 0.839745
1.098729 0.981237 0.792363
1.042064 1.054738 0.824632
0.446964 -0.352100 -0.692020
0.396952 -0.379124 -0.755311
0.349553 -0.552455 -0.558463
0.720103 0.456088 0.327828
-0.666892 0.317321 -1.003340
-0.554990 0.293972 -0.935428
-0.545090 0.231026 -0.873065
-0.571644 0.165286 -0.841010
-0.632280 0.111009 -0.888262
-0.737856 0.135761 -0.951552
-0.817407 0.196298 -0.975990
-0.784917 0.287840 -1.011872
-1.005531 -1.084543 -0.782604
-0.851457 -1.123916 -0.660124
-0.938809 -1.090582 -0.602184
-1.013636 -1.065236 -0.669383
1.004773 -1.084817 0.773817
0.932358 -1.118422 0.816238
0.852125 -1.135503 0.765760
0.850932 -1.123651 0.658241
0.938852 -1.090182 0.600691
1.013574 -1.064633 0.666447
1.086378 -0.858722 0.511286
1.061334 -0.955093 0.528928
0.997201 -0.996234 0.445986
0.971191 -0.961184 0.335669
1.009128 -0.877513 0.313630
1.056531 -0.814026 0.407839
0.231305 -0.671808 0.560888
0.301020 -0.601333 0.558259
0.368834 -0.623285 0.476823
0.615354 -1.066148 -0.513376
0.570438 -1.013570 -0.419683
0.465847 -1.036147 -0.576809
0.568507 -1.080463 -0.603802
-0.416946 0.371927 -0.859139
-0.359757 0.429891 -0.861457
-0.311375 0.455591 -0.791304
-0.348351 0.449072 -0.694765
-0.434196 0.391096 -0.652322
-0.478165 0.304209 -0.716532
0.915184 0.054228 0.877260
0.935136 -0.015957 0.805138
-0.970085 0.974800 0.357122
-1.016746 0.974492 0.447278
-0.765770 1.028159 0.332159
-0.504207 -0.417714 -0.537847
-0.533131 -0.453709 -0.472587
0.267979 0.913453 0.972839
0.387334 1.009861 0.944844
0.297261 0.978985 0.925911
0.677677 0.661556 -0.002945
0.766747 0.611758 -0.038498
0.828650 0.614774 0.043648
0.803843 0.572527 0.146316
0.720418 0.569853 0.178592
-0.935427 0.045294 -0.821973
-0.937096 0.092890 -0.727467
-0.961550 0.194894 -0.698554
-0.971392 0.268206 -0.915714
-0.911547 0.183093 -0.933491
-0.904752 0.097976 -0.903795
-1.132275 -0.867433 -0.834969
1.050213 0.500551 -0.578165
1.099281 0.644695 -0.602022
1.068068 0.596636 -0.535050
0.981866 0.243502 0.700255
0.849444 1.123279 -0.655236
0.670551 1.129073 -0.783647
0.622397 1.111589 -0.686113
-0.557768 -1.089453 0.906677
-0.562640 -1.092254 0.661078
-0.453840 -1.056118 0.657696
-0.390299 -1.048981 0.751017
-0.437537 -1.061093 0.862656
0.660357 1.100001 -0.592252
0.618717 1.064646 -0.506224
0.758436 1.111989 -0.589899
-0.151104 -0.753784 0.574142
-0.182648 -0.661808 0.603326
-0.142377 -0.619266 0.674037
-0.047157 -0.658804 0.674609
0.831605 0.210031 -0.539945
0.845821 0.277619 -0.494608
0.772371 0.323755 -0.445823
0.700633 0.307279 -0.482678
0.734450 0.226209 -0.532551
0.840127 0.258441 0.507612
0.803037 0.311067 0.456358
0.863635 0.363115 0.427901
0.874273 0.411301 0.386925
0.829704 0.445136 0.329318
0.877025 0.502343 0.288617
0.314621 -0.901823 -0.499570
0.425721 -0.741274 -0.352889
0.386138 -0.677436 -0.423007
0.325273 -0.652952 -0.495339
0.247248 -0.725971 -0.520268
0.261910 -0.827123 -0.500804
-0.718353 -0.366073 -1.035602
-0.648393 -0.411614 -1.037474
-0.636588 -0.512463 -1.071430
-0.679169 -0.612957 -1.108368
0.769830 1.137502 -0.832390
0.828837 1.137736 -0.768621
-0.649679 1.071428 0.502923
-0.783239 1.067839 0.438308
-0.873019 1.084808 0.514573
-0.365067 -0.490849 -0.610190
-0.338441 -0.579527 -0.543035
-0.259920 -0.643130 -0.558911
-0.220430 -0.596909 -0.635899
0.933505 -0.048276 -0.745999
0.934125 0.049633 -0.747991
0.894922 0.086028 -0.650775
0.800491 0.038380 -0.610231
0.808880 -0.044156 -0.610147
0.897018 -0.088691 -0.652068
-0.777348 -1.138609 -0.817509
-0.852877 -1.135388 -0.764883
-0.920005 -1.121215 -0.831661
0.790400 -0.117292 0.585660
0.701896 -0.128791 0.607536
0.635104 -0.068029 0.697719
0.641655 0.055654 0.693042
0.868337 -0.072470 0.629591
-0.505569 -0.613494 -0.346655
-0.404496 -0.766141 -0.369311
-0.358850 -0.714223 -0.430019
-0.386574 -0.612411 -0.468424
-0.477804 -0.552914 -0.429827
-1.035657 -1.014246 0.961549
-0.969467 -1.072934 0.950037
0.793132 -0.949294 -1.113049
0.782254 -0.859115 -1.135095
0.843667 -0.812479 -1.136502
0.927106 -0.988720 -1.071550
0.851244 -0.991563 -1.089124
-0.069804 -0.801285 0.603104
-0.002209 -0.744438 0.620852
0.087711 -0.759712 0.600889
0.127584 -0.840509 0.591184
0.100904 -0.914179 0.670729
-0.032672 -0.934708 0.818368
-0.518445 -0.899476 -0.290378
-0.495910 -0.806904 -0.263418
-0.532775 -0.713652 -0.237583
-0.627244 -0.910184 -0.163160
-0.607420 -0.948639 -0.257834
-0.427872 0.573030 0.461376
-0.357652 0.607441 0.500155
-0.352532 0.538121 0.570202
-0.401456 0.448774 0.618864
-0.562088 0.424014 0.475122
-0.472747 -0.326187 0.688074
-0.412210 -0.363296 0.755998
-0.382812 -0.446363 0.646251
-0.813348 0.728493 1.135997
-0.797685 0.845904 1.136629
-0.906239 0.714258 1.121855
-0.100322 -0.602339 0.838631
-0.186038 -0.558969 0.840965
-0.284301 -0.542760 0.918525
-0.341537 -0.612653 0.994405
-0.303891 -0.705610 1.008195
-0.904123 -0.345611 -1.012716
0.172331 0.950499 -0.692524
0.232314 0.990261 -0.804851
0.200908 0.950808 -0.898696
-0.996724 -0.385694 -0.569280
-0.945670 -0.306828 -0.557324
-0.925970 -0.231696 -0.596161
1.074216 -0.456877 0.797628
1.072457 -0.480477 0.879336
1.091410 -0.565026 0.907095
0.452913 1.067174 -0.715556
0.402677 1.054389 -0.818127
0.313265 1.021625 -0.781507
0.308813 0.998786 -0.664248
0.398583 1.022341 -0.617687
-0.510559 -0.364446 0.587715
-0.492739 -0.575046 0.394316
-0.568421 -0.521431 0.371271
-0.578400 -0.331594 0.550659
0.399879 -0.878561 0.401322
0.349763 -0.927812 0.494475
0.264359 -0.911756 0.552371
0.216127 -0.830766 0.535494
0.262085 -0.743203 0.503019
0.347399 -0.717834 0.439170
0.404869 -0.782516 0.367140
-0.845470 -0.656427 -1.123951
-0.931031 -0.613259 -1.096256
-0.949523 -0.507939 -1.056796
-0.876427 -0.434164 -1.056872
-0.767909 -0.586130 -1.111522
0.778707 0.088277 0.597416
0.761086 0.161718 0.566603
0.835396 0.196061 0.550518
-0.586240 -0.824074 -0.126053
-0.636360 -0.667790 -0.120460
0.689578 0.472514 1.069599
0.637625 0.544798 1.081957
0.530888 0.529228 1.044121
0.521211 0.443898 1.002994
0.621466 0.405904 1.026789
-0.655711 1.122639 -0.719739
-0.746751 1.122645 -0.642661
-0.743833 1.096704 -0.535831
-0.662602 1.071054 -0.492987
-0.576179 1.066022 -0.547575
-0.565144 1.094110 -0.667009
-0.396298 -0.593737 0.474422
-0.475262 -0.433637 0.551545
-0.412828 -0.468867 0.581404
-0.380190 -0.537300 0.542728
-0.969046 -0.218173 -0.692677
-0.942345 -0.117126 -0.723561
-0.940143 -0.081602 -0.828252
-0.946974 -0.207327 -0.908928
-0.140042 -0.921694 0.659305
-0.076471 -0.875337 0.633706
-0.146310 -0.955371 0.739704
0.381494 -1.037415 0.696217
0.380710 -1.047301 0.787187
0.293328 -1.013396 0.811474
-0.112105 0.682578 0.924416
-0.050674 0.776970 0.938308
-0.243047 0.854266 0.986937
-0.249065 0.734598 0.991976
-0.194371 0.670222 0.950361
-0.630293 -1.120665 0.753695
-0.617771 -1.115982 0.848571
-0.715423 -1.132234 0.728945
0.593459 0.099317 0.784355
0.629764 0.048380 0.860557
0.699629 0.048378 0.917649
0.753088 0.125401 0.951372
-0.566124 -0.774554 0.158854
-0.540971 -0.707862 0.230015
-0.467994 -0.873950 0.326035
-0.533906 -0.945580 0.331801
-0.633481 -0.984362 0.302266
-0.647351 -0.934706 0.185442
0.480235 0.871490 -0.310265
0.599527 0.824435 -0.094514
0.635787 0.912120 -0.154222
0.011580 0.924090 0.851902
0.010787 0.929284 0.741518
-0.060409 0.877531 0.915955
-0.638639 -0.344808 0.487730
-0.643287 -0.428235 0.403612
-0.737060 -0.425562 0.354426
-0.804868 -0.374440 0.398273
-0.785130 -0.308065 0.458487
-0.711404 -0.282329 0.498634
0.278070 -0.492376 -0.840855
0.197510 -0.565824 -0.868428
0.111727 -0.591039 -0.817781
0.106342 -0.606317 -0.723576
0.191744 -0.605881 -0.650789
0.290866 -0.528778 -0.648486
0.320087 -0.455026 -0.742884
1.057083 -0.416733 0.735846
0.996332 -0.332728 0.627457
0.339017 0.558605 0.562769
0.400570 0.576683 0.485132
0.486541 0.540168 0.433077
0.475776 -0.384298 -0.606030
0.427657 -0.491931 -0.540231
0.449335 -0.557315 -0.454251
0.605531 -0.362011 -0.497624
0.560099 -0.328591 -0.571658
-1.051884 0.447061 -0.908943
-1.022804 0.335316 -0.859739
-1.010986 0.289893 -0.756335
-1.038880 0.396595 -0.676504
-1.084446 0.504571 -0.717049
0.475895 -0.477805 0.997548
0.427219 -0.544679 1.005831
0.479087 -0.611550 1.052856
-1.009793 -0.876903 -0.314755
-1.056394 -0.814162 -0.407467
-1.086018 -0.858757 -0.510129
-1.061328 -0.955172 -0.529028
-0.998175 -0.995380 -0.446228
-0.971845 -0.960795 -0.336194
1.068534 0.939245 0.527950
1.089768 0.836373 0.512836
1.058644 0.802202 0.412307
1.010060 0.874679 0.313761
0.971765 0.960120 0.334957
1.001412 0.991131 0.444612
0.641766 -0.693910 -0.053085
0.745013 -0.615130 -0.052006
0.785225 -0.575206 -0.140432
1.082563 -0.630147 0.971779
1.016527 -0.597735 1.043227
0.961055 -0.664349 1.095271
1.109124 -0.727309 0.950562
0.530806 0.918228 -0.297580
0.604818 0.945183 -0.254495
0.655477 0.998736 -0.315229
0.607977 0.692931 -0.138648
0.580548 0.761015 -0.135143
0.610359 0.646304 -0.190758
0.288369 0.503454 0.691574
0.362353 0.427595 0.712141
-0.892282 1.118231 0.666685
-0.831160 1.112715 0.595880
-0.311059 0.709462 0.475330
-0.358159 0.786531 0.413374
-0.339800 0.879029 0.458982
-0.254791 0.855971 0.517238
-0.239006 0.760505 0.516465
0.748462 0.274855 1.004164
0.653364 0.331205 1.005086
0.706276 0.198615 0.965528
0.513906 0.269913 0.700547
0.546478 0.191034 0.789450
0.538995 0.248795 0.883322
-0.115330 0.876690 0.619233
-0.211774 0.905809 0.587480
-0.280957 0.971826 0.628466
-0.266070 0.993355 0.708498
-0.169810 0.965680 0.754037
-0.079976 0.924724 0.701953
-0.737211 1.116063 0.614215
-0.679229 1.120225 0.673065
-0.596096 1.101490 0.663015
-0.729742 1.135537 0.754656
-0.840415 1.136086 0.753186
-0.902797 1.125684 0.832459
-0.693367 1.130040 0.842609
-1.119497 0.691632 0.903961
-1.136774 0.751516 0.748348
-1.123286 0.640741 0.815482
-0.224147 0.936049 0.932303
-0.136038 0.908402 0.914994
-0.268385 0.992387 0.871073
0.439256 -0.900165 -0.378390
0.396404 -0.929608 -0.452000
0.443233 -0.991552 -0.499197
0.969635 -0.756632 -1.103410
1.103920 -0.767962 -0.969638
1.100231 -0.860260 -0.967728
1.052744 -0.909666 -1.023531
0.980564 -0.911152 -1.081957
0.932678 -0.824292 -1.117867
-0.130224 0.642976 -0.906382
-0.054905 0.616580 -0.839098
-0.101124 0.601459 -0.740595
-0.201689 0.550860 -0.730896
-0.233306 0.520045 -0.816430
-0.227469 0.591858 -0.919841
-0.948324 1.026975 -1.031823
-0.783418 0.964883 -1.106574
-0.819415 0.895055 -1.128300
-0.798700 1.017053 -0.301409
-0.913099 1.001177 -0.328946
-0.952419 0.942597 -0.271267
-0.925000 0.919612 -0.179901
-0.879601 0.930812 -0.120357
-0.812542 0.950017 -0.112411
-0.730780 0.952331 -0.143466
-0.707845 0.978299 -0.229787
-0.956411 -0.808635 -1.109897
-0.850116 -0.785783 -1.136192
-0.793847 -0.882404 -1.131531
-0.880784 1.114318 0.921219
-0.736958 1.063176 1.030507
-0.773292 1.115877 0.940862
0.505320 0.696656 -0.282946
0.405989 0.728055 -0.378062
0.420861 -0.387718 0.678220
0.406787 -0.452065 0.608249
0.323541 -0.521867 0.619739
0.286035 -0.502817 0.696475
0.356353 -0.423261 0.738448
-0.622091 -0.391559 -0.455906
-0.617925 -0.323208 -0.523668
-0.672523 -0.246739 -0.548478
-0.776077 -0.242378 -0.511650
-0.827572 -0.327044 -0.446593
-0.776972 -0.389366 -0.383318
-0.689545 -0.404888 -0.397323
-0.676310 0.653962 -0.059674
-0.826072 0.615430 -0.033898
-1.046652 0.495214 0.573589
-1.100935 0.651768 0.602801
-1.066335 0.600456 0.526511
-1.063969 -0.598467 0.521235
-1.098416 -0.637535 0.604758
-1.082734 -0.536111 0.652609
-1.048770 -0.496476 0.578434
1.064492 -0.600586 -0.520929
1.098160 -0.636688 -0.604477
1.082550 -0.535934 -0.652008
1.048940 -0.499420 -0.575661
1.001009 -0.311287 0.896645
0.931079 -0.254694 0.953562
0.863077 -0.317876 1.014980
0.890858 -0.432370 1.052353
0.986235 -0.484571 1.024306
1.029866 -0.423278 0.937534
0.896620 0.165544 0.609890
0.948675 0.175818 0.684347
0.954103 0.132152 0.757473
0.726681 -0.489850 -0.285477
0.541882 -0.635285 -0.287230
0.603342 -0.632334 -0.216330
0.704121 -0.555796 -0.212004
1.052982 0.697247 0.421876
1.069448 0.620636 0.518886
1.030326 0.522745 0.502430
0.991393 0.543157 0.400057
1.012468 0.647804 0.352320
0.525441 -0.515602 -0.418451
0.563236 -0.550711 -0.346559
0.645564 -0.486564 -0.340650
0.651498 -0.428699 -0.397288
0.587363 -0.432517 -0.444157
-1.031596 0.795978 1.065349
-0.947903 0.807041 1.113323
-0.889150 0.888581 1.120867
-0.609685 -0.122368 -0.868576
-0.650832 -0.038354 -0.882522
-0.617672 0.031183 -0.830705
-0.636063 0.017398 -0.711414
-0.683866 -0.062654 -0.647065
-0.856422 -0.785916 1.135494
-0.928763 -0.752369 1.118973
-0.999462 -0.778895 1.088344
-1.012059 -0.948241 1.045140
-1.089197 0.958779 -0.922844
-1.001125 0.979830 -1.034714
-1.105803 0.873260 -0.949807
0.996902 -0.768110 1.089491
0.933091 -0.830997 1.117256
1.074615 -0.800998 1.019730
0.660438 0.410252 0.409815
0.706149 0.326986 0.462814
0.648557 0.270496 0.545990
0.560813 0.306894 0.592571
0.529890 0.390221 0.539949
0.556745 0.445710 0.458370
0.927845 1.098892 -0.930395
0.940625 1.038050 -1.024802
0.871953 1.003877 -1.077938
0.782929 1.003382 -1.085936
0.743980 1.069552 -1.023520
1.137320 0.755144 -0.753892
1.123834 0.643588 -0.815453
1.121136 0.700084 -0.902021
1.124641 0.813747 -0.911473
1.135237 0.850978 -0.822664
-0.966841 1.100701 -0.714292
-0.973986 1.102400 -0.791251
-1.024515 1.066956 -0.849113
-1.084012 1.005983 -0.807621
-1.099398 0.967997 -0.708835
-1.057572 1.009991 -0.627451
-0.989901 -0.423663 0.991775
-0.916172 -0.315235 0.993271
-0.922001 -0.218433 0.942277
-0.969056 -0.199589 0.857176
-0.996568 -0.250230 0.767557
-1.025690 -0.327558 0.756635
-1.057321 -0.408725 0.803182
-1.030671 0.547558 -0.479377
-0.998057 0.565721 -0.391649
-1.014793 0.660609 -0.348333
-1.054932 0.711743 -0.420217
-1.067514 0.636365 -0.500956
-0.962690 0.828998 -1.106083
-0.974380 0.716650 -1.097337
-1.016689 0.625200 -1.051587
-1.088180 0.671713 -0.978255
-1.070211 0.861591 -1.017678
-1.017571 0.899409 -1.061040
-0.617092 -0.199832 -0.631425
-0.543733 -0.243464 -0.684197
-0.531459 -0.214832 -0.773953
-0.573457 -0.144270 -0.779138
-0.622071 -0.127186 -0.681493
0.510662 0.603262 -0.350271
0.422910 0.634049 -0.415883
0.351917 0.624665 -0.491710
0.375788 0.538001 -0.546509
0.438055 0.452675 -0.571431
0.611774 0.476993 -0.378241
0.592300 0.552582 -0.315969
0.659303 0.661962 0.083160
0.673420 0.621991 0.138451
0.996159 -1.063500 0.934971
1.044235 -1.048894 0.853378
1.095393 -0.985169 0.825422
1.114088 -0.917312 0.887639
1.081740 -0.896861 0.988285
1.025523 -0.948550 1.033086
0.982181 -1.019121 1.016447
-1.003879 -0.909736 -1.067818
-1.051517 -1.037982 -0.869739
-1.094764 -0.988335 -0.804931
-1.103942 -0.945172 -0.891003
-0.206418 -0.729678 0.974478
-0.235815 -0.840249 0.987295
-0.173772 -0.905910 0.933703
-0.063042 -0.894535 0.903521
-0.104304 -0.668002 0.913616
0.054399 0.692144 -0.642893
0.109811 0.781742 -0.589229
0.094614 0.883047 -0.634356
0.044085 0.921910 -0.710748
-0.064638 0.893535 -0.656742
-0.057606 0.672512 -0.658170
-1.119342 0.839824 0.924047
-1.071441 0.882015 1.009976
-1.012992 0.955819 1.040261
-0.977051 1.016711 1.022880
-0.975618 1.065626 0.957833
-0.718426 -1.047524 1.045003
-0.915349 -0.977493 1.082305
-0.898136 -1.059182 1.020353
-0.802082 -1.092367 0.992576
-1.041054 -0.405341 -0.671332
-1.019878 -0.316209 -0.743769
-1.104948 -0.558941 -0.800953
-1.084617 -0.517926 -0.690847
-0.925743 -1.100901 -0.926874
-0.981705 -1.058165 -0.964838
-0.948889 -0.997709 -1.055865
-0.832805 -0.983566 -1.095633
-0.742244 -1.039425 -1.055987
-0.742078 -1.097941 -0.978547
0.626779 0.352663 -0.489349
0.507091 0.426076 -0.526200
-0.205492 0.718251 -0.553355
-0.126462 0.738008 -0.591396
-0.117002 0.825868 -0.590777
-0.828473 -0.928824 1.118831
-0.738564 -0.966255 1.103591
-0.662129 -0.902831 1.114989
-0.694466 -0.823201 1.131694
-0.802618 -0.843052 1.136833
-1.064875 -0.570208 -0.973554
-1.026558 -0.492088 -0.987497
-0.973914 -0.345617 -0.964270
-1.025807 -0.331273 -0.834659
-0.991236 -0.295516 -0.902906
-0.012619 -0.708625 0.918209
0.002173 -0.819105 0.933013
0.098392 -0.858967 0.934524
0.167199 -0.806592 0.966867
0.161634 -0.707950 0.952007
0.077836 -0.660070 0.900003
-1.111694 0.929333 0.881153
-0.986763 1.094607 0.824875
-1.036891 1.060149 0.765434
-1.112530 0.926232 0.686957
-1.133928 0.867805 0.788668
-1.099563 0.979499 0.783861
0.076783 -0.753349 0.939662
-0.746141 -0.893971 1.127694
-0.866207 -1.071525 -1.014564
-1.065211 -0.430561 -0.793168
-0.819526 -1.017959 1.075094
-1.056993 0.980450 0.968201
-0.014359 0.795251 -0.612390
-0.110506 -0.791021 0.950450
-1.041575 -0.986630 -0.985667
1.061682 -0.991618 0.945537
0.490231 0.514399 -0.454261
-0.573339 -0.181733 -0.708975
-1.035848 0.804959 -1.061548
-1.037740 0.627039 -0.427977
-1.007145 -0.317059 0.887050
-1.038504 1.056391 -0.738498
1.136140 0.756167 -0.841910
0.853876 1.066168 -1.024550
0.611005 0.357526 0.497320
1.018560 -0.868401 1.068179
-1.059043 0.941815 -0.998129
-0.932504 -0.863296 1.113695
-0.607965 -0.057124 -0.769841
-0.987672 0.891615 1.083472
0.590846 -0.482594 -0.390473
1.036473 0.608564 0.439495
0.627672 -0.554427 -0.279798
0.959167 -0.366627 0.989484
1.076064 -0.564535 -0.591952
-1.076254 -0.564724 0.592418
-0.714843 -0.323839 -0.461781
0.359593 -0.454140 0.667694
0.457699 0.686358 -0.343906
-0.871882 1.062838 1.024312
-0.903697 -0.902816 -1.114267
-0.841832 0.975647 -0.206614
-0.925972 0.943075 -1.094793
-0.150113 0.576102 -0.829903
1.035545 -0.824257 -1.060606
-1.135717 0.771968 0.852095
-0.797886 1.136857 0.843527
-0.180143 0.942193 0.665783
0.492901 0.266153 0.796545
-0.294843 0.800813 0.469914
-0.782672 1.129591 0.673918
1.049177 -0.701470 1.040288
0.670698 -0.624923 -0.137289
1.044411 0.903053 0.421858
-1.041077 -0.911865 -0.421724
-1.058473 0.411403 -0.790775
0.516236 -0.436986 -0.505884
0.449556 0.476108 0.533820
0.212719 -0.536309 -0.754716
-0.715507 -0.359325 0.428985
-0.079336 0.940908 0.821081
0.540449 0.838991 -0.213264
-0.541811 -0.863700 0.227652
0.624871 0.146452 0.899115
-0.146948 0.796628 0.960681
-0.982675 -0.214029 -0.815093
-0.657501 1.101965 -0.602432
0.598481 0.475925 1.047582
0.841665 0.123418 0.593663
-0.855002 -0.539611 -1.095369
0.314586 -0.828408 0.457860
-0.550767 -0.427310 0.482329
0.370233 1.038075 -0.723621
-0.989172 -0.306821 -0.640026
0.128827 0.955238 -0.780545
-0.969332 -0.416866 -1.006431
-0.211951 -0.621861 0.932457
-0.869070 0.799649 1.133713
-0.430050 -0.401256 0.644070
-0.452613 0.488051 0.518293
-0.548439 -0.840219 -0.202251
0.019810 -0.858938 0.633553
0.877026 -0.908364 -1.118599
-0.972535 -1.020164 1.022842
-0.428370 -0.661291 -0.390903
0.744424 -0.007537 0.620824
0.888302 0.000053 -0.660714
-0.294224 -0.558247 -0.608215
-0.754830 1.099030 0.541159
0.365883 -0.821538 -0.409349
0.773181 0.265930 -0.493896
-0.093417 -0.706709 0.620521
-0.517368 -1.093269 0.781804
0.735253 1.130899 -0.699775
-0.967575 0.174838 -0.823216
0.731243 0.614226 0.074967
-0.434524 -0.500525 -0.524214
-0.916093 1.038000 0.418445
0.940570 0.065822 0.777491
-0.396582 0.376861 -0.770267
0.521486 -1.031163 -0.505701
0.300932 -0.669802 0.505586
1.040853 -0.912396 0.421707
0.938473 -1.111540 0.709038
-0.937784 -1.112432 -0.714317
-0.631546 0.207421 -0.936220
0.779894 0.380498 0.392052
0.387761 -0.442934 -0.644486
1.077841 1.000113 0.883475
0.928408 0.003254 -0.839365
-0.933579 -0.002806 0.814819
0.258548 -0.891706 -0.537835
-0.586587 0.776415 -0.116707
-0.649061 0.638003 -0.146956
0.656104 -1.063762 1.011592
-0.664536 -1.067870 -1.008679
0.320389 -0.904058 1.001793
0.344356 -1.019039 0.886102
0.193221 -0.904038 0.943896
1.108320 0.883091 0.608223
-1.105358 -0.626770 -0.912277
-0.640339 -0.986609 1.076721
0.951806 0.610440 -0.260424
0.369828 -0.982525 -0.557292
-0.855958 -1.087369 0.513310
-0.749832 0.507205 -0.254621
0.477943 -0.984709 1.022552
1.067281 0.713990 1.021658
0.732618 -0.955114 1.107815
-0.709149 -0.952751 -1.106124
0.668413 -0.133148 0.924099
-0.981434 -0.672969 1.086693
0.207579 -0.981199 0.778307
1.013590 0.560698 -1.032589
-1.013671 0.562058 1.033037
0.208973 0.901336 -0.952975
1.001562 0.896074 1.073636
-1.067992 1.014300 -0.883679
0.002078 -0.625045 0.843505
0.527595 -1.096143 -0.805764
0.838235 -1.128626 -0.680466
-0.127280 -0.950676 0.832537
0.660367 1.071823 1.001670
0.922744 -1.082174 0.973063
0.931712 -0.366275 -0.483386
0.680383 -1.112340 -0.923364
0.935071 -0.085212 0.726920
-1.036659 -0.809565 -1.060648
-1.127896 0.707285 -0.872655
0.919845 1.102488 0.927826
0.959599 0.812012 -0.146255
-0.986310 -1.087580 -0.877550
0.988424 -1.089714 0.859427
0.850543 1.086621 -0.508288
0.853068 -1.082884 -0.497499
0.654944 0.596587 0.199815
1.010050 -0.315757 -0.877020
0.719397 0.961385 1.103715
-1.013582 0.808828 0.293622
0.879886 -0.602453 -1.107600
0.382786 -0.534950 0.542465
-0.843392 0.132557 -0.949705
-0.034490 0.681431 -0.905856
0.001379 0.853764 0.631049
0.899941 0.864970 -1.122677
-0.916974 -0.712883 -1.118862
0.038735 -0.918007 0.868445
-0.518873 0.921979 -0.315817
-0.584887 1.028894 -0.441376
-0.734997 1.068216 -0.448516
-0.618798 0.908800 -0.173226
-0.688622 1.008170 -0.313867
0.739863 1.052004 0.401499
-0.963235 1.097543 0.885903
-0.885760 -1.112761 0.923026
0.914630 0.982914 -0.291259
-0.895715 -0.993845 0.294092
0.961165 0.694193 0.197428
0.933460 -1.118187 -0.812586
-0.960372 0.692461 -0.196845
1.120303 -0.827894 0.924107
