596
0.215432 -0.056947 1.248230
-0.031305 -0.285590 0.147306
-0.291522 -0.094273 0.611483
-0.031685 -0.293321 0.229192
-0.291574 0.092485 0.610630
0.055085 -0.041418 1.370862
-0.009405 -0.307522 -0.302101
0.012537 0.422079 0.965020
-0.139932 -0.260502 -0.346382
0.032477 0.291600 0.215743
-0.116216 -0.025540 -1.346421
-0.100399 0.316367 0.454828
-0.171068 0.243433 0.401297
0.026874 0.321230 0.374352
0.188634 0.147399 0.111966
-0.118131 0.094721 -1.332764
0.145877 -0.210107 -0.071270
-0.086357 -0.258788 0.038098
0.085017 0.262252 -1.248952
0.049014 0.274132 -0.020629
-0.086059 0.037408 -1.358931
0.155198 0.215081 0.204138
-0.036996 0.277981 0.061974
0.058876 -0.272537 0.090321
0.002428 0.408797 -0.677837
-0.104984 -0.263035 -0.222234
-0.170338 0.331421 1.059247
-0.116016 -0.245865 -0.159845
0.134326 0.369778 -0.675954
0.030457 -0.284740 -0.151250
0.319137 0.122338 -0.812626
-0.230491 0.214018 0.546039
-0.071151 0.272244 1.239417
0.036326 0.360964 0.543398
0.199897 0.308431 -0.663801
-0.121375 0.239794 0.137605
-0.041381 -0.284926 -0.184296
-0.231145 -0.213983 0.547809
0.027004 -0.118049 1.354141
0.115194 0.037775 -1.341779
0.065710 -0.061828 -1.359714
-0.276674 0.240817 0.842482
-0.072490 -0.270035 1.241679
-0.215362 0.021043 -0.006670
-0.213175 0.065875 0.109745
-0.174505 0.184755 -0.198380
-0.286504 0.095727 -0.595425
-0.255173 0.117228 -0.488343
0.241611 -0.082224 0.377253
-0.253227 0.160818 1.131593
-0.248657 0.075392 1.190365
-0.312163 -0.011002 1.036986
-0.277495 -0.010055 1.143354
-0.246588 -0.177944 1.130913
-0.245223 -0.093271 1.189762
-0.214234 0.259090 -1.102454
0.293461 0.056675 -0.599169
0.298434 0.168654 -0.732683
0.239625 0.106919 -0.397011
-0.269514 0.184749 -1.064748
-0.292703 0.187810 -0.957521
-0.322550 0.097127 -0.919113
-0.275881 0.097536 -1.123226
-0.332719 -0.020513 -0.810560
-0.328687 0.073780 -0.822957
-0.317855 -0.055899 -0.705567
-0.305367 0.015282 -0.634908
-0.257858 -0.062050 -0.444478
-0.279401 0.017573 -0.527356
-0.240358 0.098193 -0.387861
-0.308137 0.085569 -0.673367
-0.312274 0.125597 -0.743601
0.252366 -0.141320 -1.149481
0.304824 -0.150268 -0.962853
0.292193 -0.065829 -1.093214
0.314465 -0.074004 -1.004386
0.284342 0.221986 -0.793626
0.315519 -0.141197 -0.865971
0.290426 -0.211393 -0.819549
0.330541 -0.056132 -0.817722
0.322286 -0.044168 -0.722909
0.316476 0.036425 -0.687249
0.318167 0.093859 -0.734888
0.301781 -0.110732 -0.669398
0.286159 -0.194890 -0.719983
0.256317 0.015769 -0.414606
0.279791 -0.006600 -0.527212
0.280442 -0.091350 -0.567410
0.247885 -0.157345 -0.511134
0.238613 -0.059940 -0.335605
0.226611 -0.146256 -0.397181
0.221685 -0.059188 -0.204477
0.219626 0.035359 -0.134233
-0.293531 -0.150436 -0.678959
-0.279181 -0.221175 -0.746014
-0.239440 -0.040574 -0.324190
-0.236578 0.047998 -0.309172
-0.219505 0.031378 -0.119479
-0.216998 0.084891 -0.204346
-0.291456 0.153561 1.025629
-0.318167 0.069133 0.987932
-0.247927 0.280856 0.937085
-0.287067 0.206878 0.943378
0.256287 0.159365 0.547735
0.266675 0.075819 0.496128
0.262797 -0.088322 0.489364
0.248523 -0.177385 0.545724
0.307617 -0.003808 0.643172
0.283630 -0.005074 0.543915
0.302529 -0.123253 1.014901
0.283385 -0.208170 0.966477
0.235219 -0.280689 1.000275
0.281624 0.212864 0.964099
0.303151 0.125158 1.010470
-0.313143 0.150055 0.867228
-0.328514 0.070007 0.895837
-0.334125 -0.004300 0.840430
-0.325873 -0.000761 0.737325
-0.253277 0.187315 -0.579644
-0.245909 0.244593 -0.654646
-0.280044 0.215322 -0.734239
0.326239 -0.054168 0.942687
0.326456 0.052796 0.941911
-0.231959 -0.049273 0.277610
0.209512 0.221033 0.485737
-0.279207 -0.236504 -0.841916
-0.231117 0.049619 0.272647
-0.215151 0.088740 0.193528
0.198555 0.045570 -1.270653
0.245311 0.086454 0.402297
0.211779 0.176212 0.390621
0.242832 0.013935 0.335281
0.291357 0.029781 -1.105950
0.249675 0.081489 -1.185847
-0.253999 -0.188655 -0.583676
-0.238675 -0.157208 -0.473650
-0.184437 0.083374 1.277792
0.141907 0.305504 0.513789
0.176827 -0.219388 -0.350537
0.041388 -0.427334 -0.823501
0.047108 -0.416462 -0.736909
-0.132261 -0.362025 0.654795
-0.069174 -0.410370 0.733771
-0.065314 0.411604 0.732621
-0.127233 0.365541 0.656504
0.239974 0.163311 -0.488099
0.193830 0.237095 -0.467909
0.160255 0.302418 -0.546089
0.267230 0.205209 -0.658148
0.270862 0.142908 -0.582200
0.021639 0.416235 0.717714
0.053147 0.391652 0.643554
0.129142 0.350333 0.617500
0.188957 0.333696 0.702508
-0.249434 0.282857 -0.793339
-0.253858 0.277220 -0.894877
-0.050765 -0.426057 -0.845479
-0.222945 -0.320816 -0.855050
-0.105707 -0.344715 0.560544
-0.178046 -0.237206 1.188420
-0.056291 0.188654 1.316664
-0.141410 0.178185 1.275612
-0.184748 0.231443 1.184606
0.190627 -0.334007 0.708257
0.023288 -0.415886 0.719903
0.047751 -0.387580 0.629281
0.131195 -0.351216 0.621640
-0.013352 -0.367284 0.549968
-0.212225 -0.099984 0.197377
-0.171628 -0.192759 0.216299
-0.215781 -0.048938 0.104799
-0.091845 -0.414030 0.838910
-0.173195 -0.368599 0.854527
-0.195572 -0.338541 0.954319
-0.139045 -0.308431 1.146753
-0.134076 -0.356704 1.055134
0.199392 -0.337332 0.944541
0.214444 -0.330665 0.858429
0.167789 -0.369775 0.792212
0.089414 -0.413389 0.805380
0.159677 0.374959 0.786449
0.205763 0.339684 0.854150
0.074137 0.417555 0.794638
0.195199 -0.335502 -0.731202
0.121574 -0.377830 -0.686629
0.223188 -0.238709 -0.570503
0.242719 -0.258767 -0.674628
0.262821 -0.229075 -1.015516
0.235248 -0.222369 -1.107824
0.226295 -0.300988 -0.971003
0.146062 -0.361509 -1.020058
0.082949 -0.406162 -0.966962
0.111711 -0.405408 -0.875079
0.192764 -0.351352 -0.828676
0.245160 -0.292123 -0.873390
-0.046907 -0.188196 1.319049
-0.133664 -0.183386 1.278372
-0.179065 -0.095803 1.279383
-0.139696 -0.004978 1.327785
0.151412 0.364227 -0.999458
0.211036 0.328133 -0.925489
0.135962 -0.280674 -0.416308
0.159825 -0.295083 -0.524767
0.103241 -0.354403 -0.585944
0.012762 -0.364948 -0.542547
0.324384 0.102870 0.860174
0.296378 0.198114 0.876376
0.262840 0.265072 0.820455
0.254667 0.257932 0.722454
0.280753 0.170262 0.655540
0.313322 0.078157 0.695128
0.328963 0.049797 0.782250
0.279357 -0.178071 0.661516
0.254380 -0.260472 0.728884
0.264466 -0.262622 0.824525
0.296826 -0.196480 0.878827
0.324141 -0.104159 0.861706
0.328865 -0.052273 0.783815
0.313230 -0.083535 0.698791
-0.224968 -0.313161 0.780360
-0.208183 -0.307521 0.682516
-0.240005 -0.241199 0.627729
-0.274545 -0.163885 0.620903
-0.308773 -0.102045 0.695665
-0.274679 0.163136 0.620792
-0.239815 0.242537 0.629717
-0.207695 0.309844 0.687945
-0.223906 0.315358 0.789389
-0.307550 0.160057 0.783718
-0.308584 0.101422 0.694268
-0.301552 0.013427 -1.077095
-0.324494 0.013079 -0.975081
-0.328390 -0.063873 -0.905946
-0.303166 -0.169556 -0.923091
-0.270962 -0.211688 -1.017456
0.005168 -0.350924 -1.154853
0.110945 -0.342832 -1.116115
0.167154 -0.275606 -1.158329
0.038145 -0.306099 1.214133
0.197535 -0.291169 1.083086
-0.181616 -0.354367 -0.936118
-0.088169 -0.410368 -0.928549
-0.022947 -0.412142 -0.997574
-0.064086 -0.375430 -1.086820
-0.162560 -0.320012 -1.092653
-0.212215 -0.303749 -1.016061
-0.207499 0.224439 -0.488717
-0.120819 0.255312 -0.255418
-0.180376 0.204040 -0.310877
-0.214536 0.173909 -0.398142
0.044094 -0.366843 1.116504
0.127725 -0.356498 1.067959
0.133455 -0.381374 0.976940
0.068987 -0.418826 0.907674
-0.021915 -0.424493 0.931181
-0.040490 -0.397400 1.041664
-0.211276 -0.274493 -0.612460
-0.138400 -0.323051 -0.555569
-0.059582 -0.376072 -0.603840
-0.042479 -0.408533 -0.699845
-0.102610 -0.404497 -0.769984
-0.188960 -0.349398 -0.773112
-0.230043 -0.289504 -0.706991
-0.075623 0.419224 0.832216
0.020979 0.428609 0.884640
-0.180956 0.346926 0.974150
-0.161063 0.376751 0.864310
0.140479 -0.226967 -1.239684
0.197352 -0.142028 -1.238017
0.166634 -0.054834 -1.300450
-0.054338 0.298630 -0.301352
0.084416 0.406933 0.961453
0.177311 0.357132 0.941923
0.223333 0.295428 1.001160
0.186264 0.298194 1.092253
0.263779 -0.107409 1.142750
0.207428 -0.219823 1.162267
0.128355 -0.233537 1.243400
0.109669 -0.160128 1.308573
-0.031442 -0.282886 -1.243084
0.045996 -0.228986 -1.290318
0.023546 -0.148395 -1.344253
-0.229331 0.077606 -1.221166
-0.049166 -0.068217 -1.363394
0.089832 0.291257 -0.335583
0.166227 0.235753 -0.360286
0.204538 0.157372 -0.304256
0.199402 0.132260 -0.180648
0.157103 0.195764 -0.093516
0.065203 0.269194 -0.116181
0.038180 0.293314 -0.248005
-0.211523 -0.109453 -0.221405
-0.214020 -0.060991 -0.104717
-0.198023 -0.111186 0.006735
0.271964 0.119458 1.117583
0.258853 0.015606 1.182283
0.138262 0.227317 1.240363
0.212720 0.220031 1.154786
0.180446 -0.154460 -0.025769
0.180830 -0.164117 -0.144048
0.144424 -0.230525 -0.240214
0.165782 0.216743 0.290897
0.036045 0.328913 -0.420900
-0.055850 0.320160 -0.404897
-0.130829 0.306372 -0.490343
0.070494 0.346597 -0.519801
0.216643 0.182109 -1.183229
0.229516 0.238442 -1.096658
0.160448 0.326166 -1.083132
0.068891 0.351692 -1.133824
0.149403 0.113007 -1.302461
0.134630 0.198156 -1.266715
0.008408 0.039582 -1.372821
0.128525 -0.068626 1.329593
-0.023427 -0.002380 1.373630
0.009795 0.119696 1.354944
0.118504 0.131686 1.313437
0.180401 0.027226 1.291341
-0.170134 0.334357 -1.045806
-0.091043 0.361501 -1.098560
0.002478 0.389538 -1.075399
0.051664 0.408070 -0.995362
0.008343 0.427226 -0.911107
-0.099724 0.409762 -0.884534
-0.182727 0.351747 -0.943121
-0.267848 -0.118324 0.541843
-0.163967 -0.279696 0.493537
-0.134114 -0.272927 0.387684
-0.184562 -0.199164 0.320852
-0.231653 -0.106255 0.354468
-0.260385 -0.059091 0.456463
0.182980 0.149213 0.023290
0.214427 0.041116 -0.016027
0.212240 -0.056632 0.039756
0.216907 -0.059981 0.154340
0.226942 0.036546 0.227754
0.194012 0.148576 0.195828
0.145071 0.212656 0.117890
0.005018 0.384344 -0.606556
-0.108181 0.350514 -0.584864
-0.182116 0.325371 -0.658561
-0.180931 0.351326 -0.744363
-0.098814 0.407692 -0.787218
-0.020544 -0.330718 -0.421340
-0.122356 -0.295802 -0.434073
-0.183950 -0.222911 -0.392187
-0.159423 -0.217681 -0.258509
0.056585 -0.286925 -0.238238
0.059536 -0.309773 -0.363010
-0.056511 0.277773 0.163942
-0.141707 0.228426 0.209578
-0.175370 0.172656 0.137817
-0.183615 0.146239 0.023566
-0.139884 0.213530 -0.067709
-0.104670 0.252924 -0.150447
-0.033649 0.275331 -0.043686
0.042939 0.275189 0.085335
-0.051701 0.142233 -1.338810
0.030595 0.227095 -1.294285
0.020317 0.305505 -1.218431
-0.087203 0.315681 -1.181845
-0.162050 0.250995 -1.194003
-0.155908 0.152736 -1.275144
0.030468 -0.343640 0.474583
0.124586 -0.321773 0.523845
0.182396 -0.255058 0.478940
-0.025267 -0.315383 0.359693
0.077348 0.418259 -0.833385
0.180217 0.362220 -0.841962
0.228776 0.306814 -0.771262
0.070565 0.397656 -0.677463
0.013371 0.421214 -0.747271
0.071285 0.322200 0.432644
-0.089344 0.344838 0.539548
-0.022137 0.306276 0.306306
0.079789 0.292216 0.320362
-0.227813 -0.029788 -1.233267
-0.274619 -0.066319 -1.139465
-0.260018 -0.169548 -1.108234
-0.195315 -0.243390 -1.157101
-0.136103 -0.222600 -1.245224
-0.148813 -0.097830 -1.304457
-0.139270 0.315543 1.132831
-0.101387 0.372972 1.058802
0.017565 0.399182 1.042569
0.090146 0.349145 1.123239
0.054968 0.302260 1.214227
0.102634 -0.243888 0.008067
0.014681 -0.279469 -0.072809
-0.083428 -0.258530 -0.055677
-0.141261 -0.211858 0.022162
-0.100003 -0.253611 0.135035
-0.229533 0.109917 0.349777
-0.174011 0.215024 0.324426
-0.111772 0.287599 0.377779
-0.163051 0.274895 0.475512
-0.268030 0.117060 0.541539
-0.260397 0.058056 0.455879
-0.310254 -0.154222 0.801603
-0.326969 -0.087233 0.874594
-0.315985 -0.095093 0.975044
-0.282880 -0.183783 1.016323
-0.259416 -0.261629 0.937838
-0.274142 -0.245791 0.831618
0.283587 0.184761 -1.012271
0.309969 0.078613 -1.022147
0.326553 0.011162 -0.960844
0.333093 0.025214 -0.866749
0.297433 0.197162 -0.862597
0.275005 0.235818 -0.930301
0.058599 -0.295525 0.294420
0.152520 -0.249388 0.359152
0.199682 -0.168978 0.309953
0.185882 -0.164170 0.196746
0.117952 -0.240131 0.130603
0.037610 -0.284458 0.169641
0.128593 -0.245283 0.241901
0.316333 0.122196 -0.923448
-0.303201 -0.175112 0.904586
-0.220458 0.179057 0.439205
-0.013821 -0.279237 0.056702
-0.027328 0.352657 1.146838
-0.219543 -0.142250 -1.206366
-0.027717 0.332884 0.431789
0.136822 0.382010 -0.744704
0.091350 -0.307520 0.412788
-0.074426 0.245407 -1.264798
-0.109341 0.241553 0.056206
-0.088171 -0.286507 -0.307843
-0.082906 0.393172 -0.683956
0.213717 0.060993 0.107094
-0.218262 -0.182937 0.439260
-0.075846 0.400187 -0.995437
0.082782 0.028285 1.358927
0.066993 0.134631 -1.338220
0.139926 0.278247 -1.183433
-0.032320 0.350487 -0.502650
0.106459 0.258931 0.206546
0.099916 -0.253011 -0.127163
0.210989 0.126417 1.226586
-0.168310 -0.179914 -0.105698
0.139121 0.233000 -0.229371
0.112256 0.239087 -0.001200
-0.162246 0.031333 -1.309396
-0.055249 -0.186862 -1.315496
0.190051 -0.136460 1.250247
0.136198 0.363490 1.032017
0.011072 0.314704 -0.339485
0.112758 -0.151860 -1.309633
-0.071408 0.411124 0.950960
-0.146076 -0.357261 -0.672030
0.053377 -0.403710 1.013195
-0.145135 0.261788 -0.380575
-0.127104 -0.375062 -1.013511
0.130838 -0.306304 1.157223
0.076361 -0.299246 -1.208888
-0.306171 -0.093397 -1.023869
-0.272935 0.221837 0.718333
-0.272322 -0.222307 0.716845
0.303891 -0.166371 0.777438
0.304040 0.164299 0.773039
0.078202 -0.331462 -0.477351
0.119796 0.397665 -0.918756
-0.086685 -0.103651 1.341767
-0.104146 -0.313241 -1.171352
0.175244 -0.361638 -0.924248
0.198424 -0.297582 -1.067293
0.181851 -0.314817 -0.630471
0.125208 0.398588 0.873278
0.149238 -0.384480 0.882827
-0.054264 -0.348726 1.146176
-0.114202 -0.396715 0.947683
-0.180602 -0.160015 0.113336
0.066764 -0.360352 0.556892
0.112493 -0.388898 0.711062
-0.035959 0.285944 -0.185155
-0.020335 0.356095 -1.147108
-0.110924 -0.265716 0.272022
-0.071607 -0.330665 0.466459
-0.144180 -0.388423 -0.852859
-0.187409 0.356268 -0.839710
0.108292 0.390921 0.709134
0.227999 0.229852 -0.569465
-0.102950 0.271444 0.271888
-0.031374 0.392660 0.637813
-0.043493 -0.390632 0.636888
0.125676 -0.395286 -0.782699
0.116774 -0.272027 -0.320288
-0.095475 0.099312 1.339658
-0.197210 -0.246786 -0.506411
0.143810 0.290141 1.169442
0.090878 0.378684 -1.059900
0.274918 0.134402 -1.100501
0.220893 0.115454 0.306198
-0.066909 -0.346336 -0.512540
0.198906 0.127477 -1.245991
-0.154509 -0.373454 0.753259
-0.150110 0.377422 0.759525
0.014351 -0.427454 -0.908939
-0.200662 0.147401 0.246854
-0.020807 -0.426621 -0.776620
-0.254183 -0.270748 -0.934109
0.034756 -0.223430 1.296556
0.034621 0.221848 1.297134
0.045334 -0.390170 -1.060752
0.152522 0.262813 0.406111
-0.210959 -0.132613 0.272951
0.033397 -0.394019 -0.643273
0.333943 -0.000953 0.861273
-0.234797 0.287415 -0.716026
-0.195371 0.278388 -0.576806
-0.327022 0.079454 0.803339
-0.327771 -0.071616 0.791253
0.257254 0.216248 1.057660
0.258635 -0.210091 1.062600
0.288421 -0.089883 0.598904
0.289551 0.079505 0.596227
-0.226058 0.000551 0.194965
-0.247293 0.000001 0.362420
-0.313250 0.131528 0.943111
0.312549 0.140035 0.929772
0.312362 -0.140125 0.931461
0.241944 0.142820 0.461510
-0.198635 0.117691 -0.092892
-0.227473 -0.008204 -0.210749
-0.260476 -0.224341 -0.664093
0.212835 -0.061124 -0.077768
0.200527 0.112409 -0.075863
0.204573 -0.147858 -0.276576
0.258702 -0.073232 -0.457324
0.269152 -0.175289 -0.618275
-0.246699 -0.286775 -0.784618
0.329790 0.028135 -0.773463
0.314783 -0.127689 -0.768040
0.254673 0.279287 -0.854260
0.313109 -0.006356 -1.036629
0.282087 -0.223944 -0.918197
0.284326 -0.150579 -1.057242
-0.287307 0.158955 -0.663381
-0.255974 0.028425 -0.416043
-0.284214 -0.082780 -0.577647
-0.324294 0.036836 -0.731609
-0.269491 0.020128 -1.163023
-0.306204 0.100485 -1.021593
-0.333442 0.020021 -0.888721
0.212990 0.180310 -0.402648
0.263018 0.245843 -0.724990
0.299720 0.117488 -0.666562
0.267045 0.079712 -0.501755
0.223395 -0.316880 0.783914
-0.230536 -0.312783 0.868329
-0.224766 0.319070 0.879343
0.220741 0.319263 0.778692
-0.153643 0.310523 -1.126888
-0.241434 0.270789 -1.001623
-0.203854 -0.161110 1.220426
-0.289903 -0.096061 1.084123
-0.292342 0.074136 1.088642
-0.210301 0.148548 1.219259
-0.185753 -0.295071 0.589768
-0.182233 0.297256 0.587429
0.182589 -0.334759 1.018723
0.204919 -0.207093 -1.182584
0.111055 0.359960 -0.614627
-0.021291 0.430450 -0.832701
0.221533 -0.172460 0.426517
0.226513 -0.071798 0.266358
0.178588 -0.159992 0.083964
-0.221473 -0.008491 1.244500
-0.228485 -0.252775 -1.081779
0.228989 0.285695 -1.007886
-0.301922 0.182310 -0.838111
0.327648 -0.066511 -0.913021
0.200806 -0.224066 -0.461272
0.251185 -0.277284 -0.775018
0.231735 0.047076 -0.277935
-0.315651 -0.132241 -0.802307
0.248244 -0.037387 -1.197565
-0.215615 0.132067 -0.304417
0.124187 0.296393 -0.439569
-0.220823 -0.136550 -0.349542
-0.228102 0.175108 -1.169567
0.261288 -0.000829 0.439374
-0.000515 -0.429789 0.821830
-0.005686 0.429116 0.793089
0.303067 -0.027182 -0.627986
0.248914 0.283245 0.910884
-0.329595 -0.009983 0.935232
0.254599 -0.274301 0.913224
0.324387 -0.002104 0.721211
0.210601 -0.273174 0.610075
-0.294639 -0.001053 0.592758
0.216757 0.262626 0.604709
-0.216765 -0.275044 1.064551
-0.231128 0.261230 1.052445
0.307696 0.002259 1.051055

