382
0.508806 -0.001031 0.281325
-0.594481 0.129883 0.469415
-0.532840 0.198379 0.353581
-0.594622 -0.128422 0.469117
-0.533690 -0.196437 0.354298
0.574862 0.264874 0.488844
0.575685 -0.263952 0.490807
0.579339 0.312785 0.591270
0.580193 -0.311109 0.593928
-0.386842 -0.493183 -0.334864
0.535275 -0.399559 -0.531594
-0.360141 0.581262 -0.398943
0.394299 0.284701 -1.087414
0.343286 -0.635388 -0.840092
-0.295137 -0.309702 -0.079986
0.504774 0.477537 -0.716060
0.011424 -0.704728 -0.962946
-0.296198 0.305365 -0.076135
-0.041001 -0.350454 -1.216392
0.005558 0.589858 -1.081193
-0.081756 -0.597628 -1.068692
-0.255685 -0.558947 -1.028846
0.165173 -0.351493 -1.191875
0.213081 0.636551 -0.974930
0.215695 -0.690144 0.899838
0.221638 0.687327 0.899491
-0.532426 0.001231 0.317490
0.545346 0.184936 0.371693
0.544770 -0.185435 0.371060
0.330511 -0.680625 0.555664
0.431952 0.588486 0.611975
0.279229 -0.515846 0.253121
-0.272631 -0.514877 0.247389
-0.355573 0.508436 0.313111
0.279609 0.514957 0.252396
0.120413 0.380170 1.192133
0.054295 0.174170 1.262276
-0.299330 0.230354 1.173377
-0.137662 0.107213 1.258579
-0.299420 -0.230394 1.173305
-0.137662 -0.107310 1.258564
0.170278 -0.000006 1.255987
0.357568 -0.000037 1.167783
0.120030 -0.380523 1.192060
0.054394 -0.174190 1.262272
0.331628 -0.383239 1.093911
0.439392 -0.180509 1.077807
0.566761 -0.115070 0.907565
0.594669 -0.240352 0.736195
-0.256534 -0.450000 1.105758
-0.045138 -0.531609 1.122623
-0.457606 0.110097 1.072770
-0.457712 -0.109905 1.072693
-0.044096 0.531335 1.122866
-0.256484 0.449903 1.105854
0.594617 0.240987 0.735048
0.566825 0.114687 0.907511
0.439423 0.180207 1.077873
0.332749 0.382118 1.093687
0.009726 0.687631 0.983061
-0.573125 0.291287 0.522805
-0.574620 -0.287700 0.524407
0.005735 -0.688707 0.982230
0.610266 -0.132122 0.538389
0.610210 0.131607 0.537689
0.365170 -0.076327 0.036679
0.365596 0.086477 0.053338
-0.125203 0.605059 0.249541
0.002065 0.539225 0.162014
0.131962 0.605441 0.252751
0.133278 -0.605730 0.253614
0.001600 -0.537912 0.160578
-0.131487 -0.602366 0.249621
0.513984 0.454167 0.729096
0.380150 0.529260 0.937045
-0.084598 0.727451 0.384601
0.081355 0.726818 0.382744
0.169170 0.765070 0.525868
0.091455 0.802889 0.674546
-0.170390 0.767336 0.536094
-0.075564 0.804440 0.689463
-0.136039 0.749587 0.849664
-0.297332 0.672651 0.840559
-0.364080 0.538466 0.949002
-0.483667 0.458395 0.839989
-0.484034 -0.457890 0.839439
-0.364173 -0.538646 0.948686
-0.296907 -0.673117 0.840162
-0.136671 -0.749701 0.849132
0.515859 -0.449888 0.732724
0.377492 -0.530690 0.938718
-0.169577 -0.767640 0.535974
-0.075461 -0.804534 0.689006
0.091675 -0.802816 0.674683
0.175959 -0.762763 0.527749
0.084147 -0.726619 0.383284
-0.084869 -0.727331 0.384498
0.389202 0.521128 0.364431
0.284663 0.392286 0.160425
0.397255 0.399331 0.273901
-0.395335 0.380776 0.259744
-0.284759 0.417506 0.182206
-0.237033 0.534605 0.239210
-0.280034 -0.397659 0.161872
-0.385408 -0.402727 0.263732
-0.375983 -0.522595 0.348297
0.392754 -0.398776 0.269137
0.275273 -0.396520 0.155174
0.393287 -0.518334 0.367086
0.342321 0.682543 0.678091
0.316574 0.690249 0.549775
0.398282 0.585120 0.469399
-0.319163 0.689708 0.556311
-0.368407 0.656284 0.698136
-0.470219 0.537087 0.697647
-0.503583 0.471909 0.556905
-0.403574 0.572183 0.459122
-0.406414 -0.573062 0.465777
-0.504126 -0.470877 0.556962
-0.470384 -0.536786 0.696823
-0.367893 -0.656751 0.697449
-0.318724 -0.690152 0.556617
0.409701 -0.575399 0.476127
0.351974 -0.673823 0.683745
0.442272 -0.576669 0.619180
0.436953 -0.140435 0.207334
0.459382 -0.276941 0.279204
0.465053 0.277743 0.286005
0.442784 0.141315 0.214269
-0.437763 0.137009 0.207399
-0.454708 0.275406 0.271238
-0.455230 -0.276841 0.272653
-0.440023 -0.132748 0.209235
0.179788 0.761509 0.780455
0.283665 0.709865 0.771791
0.282407 -0.709866 0.774110
0.174583 -0.763683 0.780228
-0.609808 -0.198644 0.664192
-0.614884 -0.083636 0.766466
-0.556423 -0.176376 0.911138
-0.557249 -0.299906 0.828840
-0.556913 0.300707 0.829039
-0.556142 0.177155 0.911426
-0.614797 0.084671 0.766412
-0.609536 0.199912 0.664552
0.389208 -0.177250 -0.148368
0.317682 -0.329137 -0.138523
0.343762 -0.491475 -0.288436
0.225017 -0.370935 0.007408
0.011610 -0.473400 -0.009344
0.131476 -0.460029 -0.079324
0.195995 -0.575461 -0.252971
0.016617 0.471101 -0.000987
0.341481 0.203363 -0.069408
0.251736 0.342980 0.014043
0.159125 0.444935 -0.080852
0.224632 0.556139 -0.251865
0.406885 0.503672 -0.375766
-0.116259 0.148242 -1.257152
0.535649 -0.120694 -0.339228
0.417575 0.598120 -0.578522
-0.098082 0.493233 -0.116396
0.450544 -0.197296 -1.061561
0.491324 -0.341807 -0.939369
-0.215318 0.304592 -1.192046
0.078179 0.181832 -1.258162
0.215847 0.042731 -1.239779
0.622557 0.026200 -0.740674
0.614390 0.175631 -0.625680
-0.549342 -0.263162 -0.877904
-0.579037 -0.152536 -0.437931
-0.562989 0.217025 -0.427623
-0.380967 0.492283 -0.974795
0.157843 0.755069 -0.816924
0.246683 0.745899 -0.638090
-0.195648 -0.061049 -1.245631
-0.375278 -0.094873 -1.149241
-0.423786 -0.284520 -1.059074
0.138741 0.344830 -1.203249
0.315751 0.517187 -1.020329
0.363293 0.561124 -0.926768
-0.021001 0.790861 -0.793024
-0.270233 0.725264 -0.733736
-0.153178 0.735915 -0.868680
0.314339 -0.240429 -1.163287
0.192975 -0.153352 -1.237097
-0.367878 0.088488 0.072198
-0.369805 -0.076695 0.073768
-0.358746 -0.163333 -0.077620
-0.476952 -0.075551 -0.244231
-0.472035 0.114685 -0.244042
-0.355286 0.178014 -0.079576
-0.556621 -0.333653 -0.514765
-0.543406 -0.394653 -0.730619
0.086830 0.692068 -0.335438
-0.085865 0.638224 -0.272605
-0.225259 0.685260 -0.401705
-0.194741 0.766944 -0.581398
-0.047833 0.809507 -0.628760
0.100225 0.783928 -0.521844
0.521755 0.261606 -0.937332
0.376522 0.110748 -1.146699
0.489366 -0.000266 -1.045239
0.570354 0.092462 -0.906645
0.214342 -0.510842 -1.089513
0.371509 -0.512044 -0.966232
-0.158482 -0.463928 -1.142171
-0.312495 -0.424207 -1.087864
-0.131877 0.662292 -0.991240
-0.209945 0.560330 -1.054191
-0.118503 0.462284 -1.153972
0.043665 0.456247 -1.169909
-0.083707 -0.199227 -1.255213
0.053644 -0.226398 -1.253036
-0.242770 0.358388 0.050715
-0.312740 0.397614 -0.191871
-0.210618 0.407624 -0.082827
0.616427 -0.157609 -0.689583
0.569963 -0.304420 -0.776608
0.588183 -0.227940 -0.514684
0.085263 -0.727432 -0.390860
0.115257 -0.795250 -0.627731
-0.037861 -0.786866 -0.796270
0.143511 -0.686814 -0.956559
0.091150 -0.611983 -1.054327
0.452381 0.504473 -0.850161
0.533470 0.367102 -0.826409
0.578847 0.316870 -0.696988
-0.240270 -0.359704 0.046336
-0.627150 -0.023843 -0.602075
-0.606797 -0.070599 -0.807190
-0.588472 0.264794 -0.739497
-0.615277 0.149289 -0.583703
0.230754 -0.700024 -0.874118
0.262419 -0.732049 -0.722627
0.384937 -0.642162 -0.682117
0.330520 0.417603 -1.078146
0.268604 0.352410 -1.150558
-0.213156 -0.749119 -0.764690
-0.320659 -0.634236 -0.877551
-0.442909 -0.559336 -0.759913
-0.401112 -0.625328 -0.619998
-0.276369 -0.728114 -0.608344
-0.231154 -0.704580 -0.440105
-0.311886 -0.420605 -0.208148
-0.203060 -0.424033 -0.097685
-0.094974 -0.513213 -0.141114
-0.089019 -0.678982 -0.320928
-0.378795 0.461208 -0.297024
-0.538142 0.376496 -0.508203
-0.544715 0.401401 -0.703032
-0.452115 0.524502 -0.811993
-0.394467 0.628864 -0.702731
-0.422707 0.586344 -0.540080
-0.459688 0.477795 -0.432751
0.455773 0.192268 -0.243528
0.498332 0.308421 -0.351229
0.583847 0.179699 -0.459382
0.549245 0.067243 -0.349863
0.464098 -0.544745 -0.595305
0.442619 -0.510600 -0.440545
0.542001 -0.414900 -0.669145
-0.446140 0.342584 -1.006319
-0.551462 0.234563 -0.893322
-0.559940 0.077161 -0.931254
-0.455190 0.079347 -1.080266
-0.379405 0.255198 -1.111888
-0.331188 -0.613246 -0.402752
-0.422637 -0.561241 -0.480324
-0.484012 -0.437769 -0.433005
-0.490510 0.203943 -1.012740
0.536958 0.185478 -0.352342
-0.488049 0.511405 -0.622914
-0.237904 -0.566685 -0.269569
-0.340759 -0.675594 -0.735075
-0.614382 0.106099 -0.758417
-0.094698 -0.790809 -0.560232
0.586240 -0.300322 -0.641114
0.240859 -0.620568 -0.977632
0.486424 0.158444 -1.031132
-0.065644 0.762385 -0.446165
-0.498357 -0.490550 -0.591511
-0.379056 0.011663 -0.080729
-0.149953 0.783056 -0.731517
0.197113 0.485455 -1.114125
-0.238966 -0.282028 -1.188566
0.087709 0.804175 -0.683984
-0.299709 0.636829 -0.898530
-0.587331 0.286228 -0.595011
-0.580143 0.038190 -0.410737
0.125748 -0.759633 -0.834152
-0.429410 -0.462050 -0.936594
0.594382 0.203868 -0.786015
0.250279 0.222050 -1.201256
-0.299405 0.418783 -1.098703
0.350659 -0.374002 -1.084353
-0.245194 0.529412 -0.241542
-0.339148 -0.662139 -0.511275
0.357257 0.640239 -0.793474
0.617807 -0.016054 -0.535276
-0.303833 0.112566 -1.193866
0.332073 0.366438 -0.189409
-0.508456 0.386215 -0.869566
0.048913 0.547366 -0.174181
0.039241 -0.570802 -0.197215
-0.607433 -0.209399 -0.659953
0.431189 0.425467 -0.968071
-0.328208 0.681772 -0.555324
0.235202 -0.433890 -0.148028
0.353221 -0.074105 -1.167430
0.475909 -0.499322 -0.786786
-0.031717 0.330898 -1.224005
0.545570 0.374966 -0.538600
0.475665 -0.334043 -0.335311
0.028492 -0.495158 -1.148139
0.013662 0.718101 -0.942961
-0.158530 -0.692051 -0.938254
-0.518231 -0.097918 -0.998107
0.573247 -0.123838 -0.889143
-0.594626 0.195895 0.797558
-0.594898 -0.194824 0.797361
-0.421626 -0.599749 0.589828
-0.421889 0.599650 0.590274
0.001011 -0.796732 0.528946
0.384227 -0.619027 0.786506
-0.236356 -0.750564 0.695760
-0.407987 -0.585105 0.809326
-0.407912 0.584943 0.809796
-0.237580 0.749948 0.696274
-0.000788 0.796735 0.529083
0.382440 0.622518 0.782100
-0.001397 -0.654944 0.277741
0.306452 -0.671429 -0.485365
-0.447227 -0.301408 -0.277354
-0.436931 0.317159 -0.272463
-0.001876 0.655325 0.278132
0.266332 0.680358 -0.437001
0.418051 0.020694 -0.160722
0.572383 -0.000784 0.387248
0.040689 -0.777867 0.826383
-0.485843 -0.394863 0.394659
-0.483105 0.393228 0.388252
0.045478 0.776892 0.827021
-0.142430 -0.456978 0.083093
-0.421450 0.003674 0.168038
-0.141102 0.459387 0.088522
0.332101 -0.256457 0.092775
0.351329 0.257207 0.135995
0.271022 -0.649670 0.390399
0.263360 0.653062 0.386995
0.500058 0.335823 0.927819
0.236741 0.752763 0.666240
-0.194526 0.630323 0.995189
-0.553402 0.382965 0.690730
-0.564317 0.000298 0.927786
-0.553918 -0.381912 0.689915
-0.194792 -0.630448 0.994798
0.242299 -0.749593 0.668897
0.499573 -0.335936 0.928607
0.624480 -0.000253 0.719341
0.257827 -0.194731 1.203543
-0.099652 -0.325517 1.217398
-0.311404 -0.000040 1.196625
-0.099705 0.325491 1.217404
0.257742 0.194619 1.203612
0.429142 -0.000122 0.179495
0.153124 0.463838 0.111369
-0.340076 0.263882 0.121643
-0.341868 -0.260923 0.122729
0.146414 -0.467746 0.111956
0.018364 -0.038040 -1.277418
0.001261 -0.000039 1.280639
0.510684 -0.405207 0.464995
-0.262534 -0.653804 0.387855
-0.622051 0.000583 0.565964
-0.254591 0.654550 0.381305
0.507481 0.409741 0.462055
0.177908 -0.561993 1.066477
-0.446051 -0.336394 1.006970
-0.445699 0.336708 1.007283
0.181748 0.559916 1.066487
0.493863 -0.000123 1.041475

