437
0.274246 -0.362141 -0.121013
0.189297 0.528395 -0.505619
-0.338616 0.295157 1.304291
0.005156 -0.240712 1.580965
0.005171 0.240312 1.581130
-0.034655 -0.262117 -1.568126
0.040419 -0.516259 -0.216570
-0.034589 0.641329 -0.815004
-0.155825 0.466554 0.104673
-0.009345 -0.617982 0.631001
-0.032070 0.430727 1.433070
-0.031410 -0.431452 1.432437
0.457693 -0.160528 0.596224
0.083436 -0.603109 -0.609259
-0.149301 0.340681 -1.475942
-0.207547 0.574005 0.992467
0.027660 -0.148131 -1.615562
0.218016 0.179608 -1.522911
0.009207 -0.581757 1.187612
0.009513 0.582512 1.185487
-0.009286 0.556902 0.414179
-0.027809 0.078820 1.632196
-0.027924 -0.079408 1.632082
-0.277834 0.481839 -0.562292
0.147259 0.378893 -1.442887
0.240591 0.416204 0.218534
-0.177405 -0.601132 0.886131
0.149204 -0.406526 -1.414204
-0.121898 -0.623736 -0.802896
0.079474 -0.036846 -1.629105
-0.070655 0.581856 -1.170403
-0.079817 0.519230 -1.301728
0.048320 0.113744 -1.621424
-0.244689 0.424121 -0.277873
0.085952 0.529710 -1.276118
0.081974 -0.000099 1.630336
0.055111 -0.636933 -0.769244
-0.162046 -0.602418 -0.961150
-0.084280 -0.356999 -1.493509
0.072234 -0.552920 -0.427824
0.147974 0.450785 1.363103
0.147796 -0.451430 1.362430
-0.208908 -0.247314 -1.499383
-0.211483 -0.445004 -0.243721
-0.310224 -0.381836 -0.396219
0.132725 0.502861 -0.292103
0.302298 0.383695 0.372412
0.169148 -0.594261 0.709316
-0.002419 -0.641528 -0.928752
0.007501 -0.519114 -1.316807
-0.249793 -0.385423 -0.032871
0.093822 -0.577970 0.530507
-0.096672 -0.610499 1.055880
-0.082692 0.610467 1.070283
-0.250978 0.415845 0.266131
-0.191708 -0.446142 0.127709
0.192244 0.577503 0.676265
0.466721 0.209674 0.739578
-0.484673 -0.133672 0.758743
-0.162519 0.609319 0.828887
0.161799 0.608647 0.798831
0.094360 0.587049 0.558448
0.076498 0.260577 -1.562819
-0.265859 -0.403698 0.280640
-0.224788 0.483799 -0.438385
-0.068547 -0.584958 -0.535585
0.464821 -0.221338 0.753550
0.428244 0.304543 0.674990
-0.063771 -0.624308 -0.678342
-0.460634 0.250271 0.821514
0.463617 -0.029987 0.551765
-0.204249 0.411545 1.363744
0.330566 0.428268 -0.573745
-0.201245 -0.412969 1.365078
0.195430 0.440122 0.060537
-0.421496 -0.339745 0.941298
0.458181 0.129340 1.124345
0.458252 -0.129306 1.123885
-0.428440 0.319864 0.961522
-0.449110 0.220856 1.068339
-0.435293 0.127735 0.481527
-0.392381 0.216155 0.396540
0.410424 -0.189688 1.236597
0.410182 0.189714 1.237308
0.248777 0.555776 0.932673
-0.245361 -0.547053 0.695435
-0.243344 0.547798 0.689100
-0.424066 0.158618 1.219987
-0.375587 -0.213608 1.301568
-0.401705 -0.196692 0.413775
-0.404135 -0.324828 -1.090959
-0.000360 0.344880 -1.518107
-0.295468 -0.460211 0.551648
-0.296446 0.460297 0.554590
0.213589 -0.536834 0.568743
0.209400 0.537096 0.560782
0.313576 -0.467796 1.074714
0.171507 -0.604150 0.903454
-0.217196 -0.558547 1.047698
-0.124204 -0.614681 0.714325
-0.130785 0.610771 0.701103
0.134577 0.618939 0.920164
0.311875 0.471166 1.069843
0.199641 -0.451850 0.214571
0.357084 -0.301809 0.387776
0.371767 0.275397 0.392461
0.169994 -0.254914 1.523131
0.256873 -0.134876 1.507207
-0.024751 -0.337918 1.523189
-0.131819 -0.308553 1.511110
-0.159982 -0.160522 1.570895
-0.275655 -0.075517 1.502962
-0.277871 0.077673 1.499998
-0.160475 0.160765 1.570331
-0.132949 0.308624 1.510324
-0.024962 0.337562 1.523414
0.169877 0.254845 1.523361
0.256812 0.134830 1.507255
0.205952 -0.000028 1.569429
0.340489 0.246690 0.257719
0.337574 -0.212044 0.262955
0.396299 0.383697 0.751416
0.436580 0.254340 1.076915
-0.390361 0.401870 0.828489
-0.430564 0.226222 0.559703
-0.473318 -0.092405 1.075700
-0.475350 0.081390 1.073505
-0.387749 -0.407138 0.830284
-0.431802 -0.234130 0.575351
0.387364 -0.401010 0.765725
0.436664 -0.254918 1.075103
-0.081430 -0.511508 1.314758
-0.083000 0.510962 1.314567
-0.018891 0.505119 0.031424
0.093667 0.501889 0.194287
0.086340 -0.502855 0.177149
0.018362 -0.504855 -0.016375
0.076124 0.623968 0.686425
-0.034629 0.614808 0.618076
-0.078789 0.632867 0.944560
0.036011 0.631139 1.004156
0.041913 -0.629801 1.008282
-0.054108 -0.637266 0.949901
0.044956 -0.540514 0.355729
-0.045395 -0.560380 0.434759
0.135542 -0.533201 1.241188
0.202643 -0.349688 1.432363
0.280134 -0.362387 1.330708
0.252973 -0.466338 1.220585
-0.318560 -0.336437 1.298865
-0.286524 -0.432409 1.223562
-0.285969 0.432159 1.226371
0.253528 0.466459 1.219421
0.280124 0.361711 1.331552
0.202295 0.349314 1.433122
0.136134 0.533615 1.239675
-0.241690 0.462683 0.415771
-0.142347 0.505981 0.328128
-0.162903 -0.493669 0.320386
-0.248421 -0.456011 0.413585
0.290295 -0.363771 0.243603
0.232706 -0.409837 0.077009
0.285415 -0.410866 0.391688
0.354578 0.451155 0.923807
0.389966 0.374615 1.037881
-0.339522 0.462396 0.973025
-0.287725 0.485756 1.105328
-0.289694 -0.481765 1.111432
-0.325430 -0.479459 0.966584
0.390285 -0.374546 1.035637
0.355171 -0.450168 0.928816
0.269178 -0.536689 0.964459
0.349817 -0.255913 1.320600
0.352716 -0.145690 1.381389
0.421017 -0.061513 1.268901
-0.357922 0.137053 1.375908
-0.404377 0.046509 1.312742
-0.433516 -0.142567 1.203337
-0.402700 -0.071961 1.310756
-0.346213 -0.122647 1.401050
0.420950 0.061903 1.268996
0.352614 0.145697 1.381564
0.349601 0.255574 1.321338
0.464079 0.113482 0.589976
0.423870 0.112666 0.433950
0.419763 -0.141976 0.439806
-0.390618 0.074609 0.372142
-0.317700 0.188926 0.227881
-0.329187 0.312305 0.278945
0.305097 0.482448 0.645859
0.277652 0.458527 0.500569
-0.473913 -0.190796 0.940008
-0.451966 -0.277466 0.837714
-0.480446 0.164471 0.937878
-0.494292 0.079394 0.783865
-0.470486 0.178210 0.693987
0.279640 -0.461617 0.513338
0.304709 -0.485541 0.654004
0.497928 0.061367 0.850828
0.478167 0.166054 0.955210
0.477412 -0.169554 0.956726
0.497242 -0.069777 0.853164
-0.338643 -0.302947 0.301992
-0.327336 -0.189755 0.248230
-0.381699 -0.065771 0.360211
-0.347416 0.446761 0.695776
-0.377448 0.366550 0.589959
-0.375688 -0.368382 0.586603
-0.346481 -0.447428 0.693555
-0.270901 -0.210415 0.049358
0.219170 0.426899 -0.134813
-0.002068 0.518233 -0.208217
0.335864 -0.285699 -0.253803
0.277756 -0.146985 -0.127012
0.265456 -0.090830 0.097225
0.268968 0.126492 0.100129
-0.226917 0.416036 -0.077465
-0.107308 -0.488172 -0.086341
0.332070 -0.427800 -0.577869
0.382875 -0.284387 -0.462389
0.174239 -0.481185 -0.289047
0.211856 -0.513902 -0.501621
0.354212 0.392611 -1.129906
-0.350918 0.283679 -0.327067
-0.303811 0.317499 -0.135507
-0.263584 0.169423 0.014626
-0.259896 -0.037295 -0.075799
-0.196646 0.590942 -0.901140
0.456578 -0.136083 -0.577136
0.462929 0.051233 -0.559482
0.479022 -0.164097 -0.746981
-0.388916 0.400432 -0.926161
-0.318735 0.495991 -0.818143
-0.457649 0.187454 -0.631183
0.309201 0.074114 -0.232784
0.278393 0.202961 -0.104315
0.303358 0.337777 -0.209043
0.356221 0.315070 -0.409714
0.410372 0.150768 -0.406276
0.275149 0.514981 -1.042914
0.259178 0.551273 -0.857602
0.280204 0.379322 -1.310395
-0.241218 -0.423897 -1.307688
-0.148623 -0.525208 -1.242419
-0.462221 0.240215 -0.909183
-0.486467 0.133630 -0.775235
-0.146438 0.560675 -0.534627
-0.121306 0.518602 -0.345555
0.286313 -0.524590 -0.929382
0.363728 -0.438159 -0.777371
0.436871 -0.313432 -0.842970
-0.385075 0.351455 -0.587923
-0.331910 0.460891 -0.677113
-0.324540 0.382347 -0.450312
-0.339706 -0.056156 -0.293061
-0.394387 -0.214197 -0.406406
-0.454835 -0.122586 -0.556068
-0.455970 0.058458 -0.531803
-0.401355 0.107541 -0.383179
0.324678 0.482946 -0.738938
0.394447 0.382055 -0.718837
0.246026 -0.448574 -1.262465
0.323033 -0.451641 -1.089235
0.417072 -0.326312 -1.022002
-0.199031 -0.010487 -1.574599
0.453448 0.268968 -0.809136
0.443918 0.260999 -1.018600
0.499275 -0.026853 -0.828186
0.485948 0.114005 -0.727631
-0.207722 0.559459 -1.064429
-0.329882 0.448410 -1.075229
-0.355129 0.350613 -1.202603
0.352786 0.113439 -1.392288
0.293002 0.266816 -1.399900
-0.126071 0.117386 -1.600051
0.301206 0.029423 -1.480286
-0.334556 -0.379983 -1.208878
-0.390395 -0.270460 -1.217409
-0.342174 -0.431052 -1.083720
0.175850 0.560134 -1.129992
0.065085 0.608904 -1.089643
-0.134591 -0.140482 -1.590128
-0.179334 0.222662 -1.536403
-0.161035 0.443204 -1.366041
-0.272032 0.357342 -1.347458
-0.273636 0.241508 -1.441797
-0.468255 0.159841 -1.046385
-0.480028 0.008378 -1.069976
-0.424616 0.213584 -1.175285
-0.356031 -0.439123 -0.718178
-0.304186 -0.451465 -0.552263
-0.198607 -0.506847 -0.450683
0.188777 0.455690 -1.326484
-0.205634 -0.356122 -1.422861
-0.188908 -0.562885 -1.096678
-0.281909 -0.516867 -1.010551
-0.273945 -0.539149 -0.844158
0.071249 -0.575192 -1.192456
0.135670 -0.512233 -1.281169
-0.498089 -0.041287 -0.803963
-0.473678 -0.165783 -0.700394
-0.440314 -0.300113 -0.782347
-0.455971 -0.250306 -0.952861
-0.490358 -0.093983 -0.950800
0.427964 0.020628 -1.257246
0.414572 -0.150699 -1.250890
0.450868 -0.190739 -1.098094
0.489247 -0.043715 -1.002795
0.469168 0.087177 -1.100468
0.335162 -0.219774 -1.370946
0.285812 -0.109749 -1.484790
0.175751 -0.137648 -1.570322
0.273490 -0.344525 -1.360541
0.122792 -0.267707 -1.541812
0.009502 -0.430374 -1.439236
-0.442725 -0.023601 -1.215690
-0.398043 -0.158861 -1.286575
-0.324419 -0.149741 -1.422787
-0.301872 -0.014329 -1.478625
-0.343696 0.114041 -1.406389
-0.413809 0.103953 -1.274974
0.058159 0.637346 -0.940577
0.131610 0.621924 -0.816195
0.077845 0.615702 -0.652680
-0.056864 0.618698 -0.645244
0.154537 -0.611004 -0.915114
0.077990 -0.614936 -1.055606
-0.383785 -0.023243 -1.355605
0.049842 -0.354711 -1.506540
0.238814 -0.255266 -1.470527
0.461897 -0.061437 -1.145373
-0.481646 -0.175241 -0.835624
-0.217443 -0.557205 -0.655825
-0.455323 0.094609 -1.157081
0.199088 0.010211 -1.573214
-0.057090 0.240544 -1.577861
-0.224626 0.485112 -1.227849
0.489969 0.116197 -0.913201
-0.246832 -0.118844 -1.522571
0.364161 -0.322646 -1.217844
-0.432293 -0.051648 -0.437495
-0.361914 0.235475 -1.312693
0.374384 -0.423119 -0.935796
-0.494773 0.069358 -0.922916
-0.051179 -0.602108 -1.116963
-0.315710 -0.291395 -1.347279
-0.382681 -0.409271 -0.926846
0.168715 0.598302 -0.981412
0.346248 0.231582 -0.272658
-0.062888 -0.017755 -1.632938
-0.422496 0.333628 -0.753313
0.488892 -0.026902 -0.683070
-0.298565 0.511194 -0.959166
-0.027689 0.447422 -1.416172
-0.302922 0.141861 -0.206674
0.397274 0.223185 -1.241082
0.375190 0.422822 -0.901764
0.425043 -0.301307 -0.660418
-0.115682 -0.447173 -1.388914
-0.452220 -0.163216 -1.118308
-0.065404 0.626777 -1.002709
0.368267 -0.059168 -1.379831
0.254803 0.036814 -0.052298
-0.248525 0.119124 -1.520148
0.191845 -0.554362 -1.115542
-0.485876 0.004149 -0.664583
0.285454 -0.405542 -0.364656
0.008073 0.569641 -0.461267
0.430689 0.254194 -0.598517
0.257962 0.435577 -0.372650
-0.312751 -0.264816 -0.192061
0.477268 -0.181293 -0.922857
0.236166 0.484183 -1.215782
-0.201075 0.577653 -0.709138
-0.264081 -0.485213 -1.162304
-0.418987 0.309586 -1.054950
0.233171 -0.558608 -0.720795
-0.074160 -0.530505 -0.333632
-0.053650 -0.511107 0.181533
-0.043821 0.517909 0.225886
0.036943 0.518037 1.318103
0.036866 -0.518438 1.317615
0.364853 -0.342213 1.189112
0.289443 -0.525646 0.820413
0.007284 -0.643110 0.829570
-0.342669 -0.350653 0.438370
-0.302074 -0.513641 0.814265
-0.446931 0.000179 1.204549
-0.338868 0.354554 0.434136
-0.288989 0.525953 0.829141
0.000430 0.643460 0.810840
0.364668 0.342001 1.190167
0.287493 0.525722 0.795447
-0.285990 -0.008740 0.180183
-0.127110 0.483391 -0.128692
0.286029 -0.292142 0.058493
0.290467 0.329775 0.035286
0.122628 0.125456 1.599030
0.085064 0.358708 1.492654
-0.268744 0.239352 1.447917
-0.166068 -0.000279 1.594333
-0.274908 -0.240057 1.439911
0.335683 0.000021 1.434501
0.085285 -0.359063 1.492308
0.122650 -0.125600 1.599002
0.171331 -0.507752 0.400558
-0.174547 -0.532669 1.198298
-0.175719 0.534466 1.191691
0.170012 0.507621 0.398370
-0.403675 -0.310075 -0.580714
-0.410200 0.232408 -0.488973
0.225863 0.554125 -0.663217
0.391299 -0.084960 -0.372050
0.433409 0.316939 0.913374
-0.424613 0.319169 0.703539
-0.497712 -0.006506 0.924100
-0.425699 -0.318097 0.711177
0.431411 -0.321694 0.913786
0.489793 -0.021845 0.697495
0.279361 -0.256421 1.426162
-0.352988 -0.001009 1.410432
0.279165 0.256211 1.426511
0.333165 0.003255 0.283343
0.104865 0.487932 -0.053229
-0.283789 0.344350 0.087947
-0.293988 -0.337717 0.153565
0.142575 -0.471683 -0.036703
0.385345 -0.332934 0.557635
-0.168010 -0.550337 0.534510
-0.462719 0.003584 0.559207
-0.166584 0.550342 0.533330
0.394888 0.312602 0.556060
0.181946 -0.566566 1.091529
-0.398648 -0.315524 1.120093
-0.376874 0.346408 1.145397
0.176775 0.571063 1.084756
0.481967 0.000039 1.054013

