183
0.104241 -0.799061 -0.871991
0.052531 0.806667 -0.789418
-0.514961 -0.041205 -1.420775
0.130307 -0.478978 -1.625821
0.372836 -0.311578 -1.556874
0.592094 -0.086586 -1.170586
-0.608488 -0.209400 -0.829025
0.110031 0.096016 -1.821375
0.076572 -0.662116 -1.416000
-0.302165 -0.706323 -0.955908
-0.147731 -0.756111 -0.563987
-0.089088 0.720466 -1.295356
-0.311825 -0.367181 -1.592902
0.173506 0.628612 -1.420515
0.068711 0.437435 -1.684765
-0.334588 -0.663136 -0.632001
-0.589677 0.111220 -1.175030
-0.326215 0.412974 -1.535493
-0.137932 -0.340522 -1.722927
0.116484 0.723466 -1.266525
-0.503116 -0.413946 -1.173025
0.342595 0.011543 -1.683041
-0.103659 0.317461 -1.747786
0.406884 0.207997 -1.565530
-0.337478 0.582490 -1.284737
0.618583 0.143993 -0.917707
-0.381106 -0.150773 -1.618617
0.481145 -0.403490 -1.255868
0.462523 0.521828 -0.622329
-0.357244 -0.538912 -0.343358
-0.489067 -0.062637 -0.401483
-0.430009 0.528898 -0.514795
-0.493469 0.281383 -1.362755
0.494694 -0.494862 -0.944910
-0.273099 0.643179 -0.410783
-0.625062 0.086268 -0.917141
-0.075153 -0.757471 -1.181083
-0.442007 -0.358979 -1.403571
0.263750 0.465769 -1.548123
-0.511246 -0.468390 -0.921853
0.264775 0.724845 -1.007387
0.410316 0.228790 -0.250384
-0.138777 -0.018171 -1.814512
-0.548529 0.383323 -0.739101
0.613059 -0.015034 -0.649584
-0.409219 0.606883 -0.976019
0.266833 -0.537216 -1.469406
-0.053120 0.593435 -1.517862
-0.367668 0.142830 -0.179555
0.527034 0.261292 -1.278531
0.500143 0.487876 -0.910940
0.196863 0.286018 -1.729134
0.058084 -0.775728 -0.573716
0.215528 -0.667440 -0.384619
0.548562 -0.342421 -0.623446
-0.186295 -0.565910 -1.495215
-0.305491 -0.530979 -0.050120
0.221051 0.657237 -0.354877
-0.392808 0.463674 -0.260912
-0.582144 -0.168261 -1.162197
-0.083924 0.786557 -1.035960
0.500968 -0.100209 -1.438275
0.329594 0.027075 -0.044722
-0.370631 0.158133 -1.628691
0.268996 -0.683079 -1.170463
-0.613597 -0.012308 -0.642072
-0.105488 -0.799683 -0.811996
0.401876 -0.471728 -0.324256
-0.014971 0.731369 -0.419016
0.554352 0.292680 -0.567322
0.385229 0.506067 -0.345500
-0.381449 -0.245764 -0.176139
0.608229 -0.198159 -0.937987
0.357029 0.577882 -1.261537
-0.289205 0.705613 -0.693462
-0.364192 -0.594463 -1.205333
-0.433945 -0.544882 0.566433
-0.435014 0.543298 0.565926
-0.549944 0.355031 -1.063785
-0.437444 -0.170592 0.313862
0.610330 -0.206707 0.802986
0.610503 0.206014 0.802887
0.365667 -0.622593 0.570981
-0.610608 0.205879 0.803041
-0.610668 -0.205467 0.802652
0.366783 0.621406 0.570762
0.328435 -0.680994 -0.720631
-0.438199 0.176441 0.312952
0.544196 -0.002793 0.462304
0.527018 0.180218 1.354769
-0.527326 -0.181864 1.351452
-0.527393 0.181499 1.351468
0.527104 -0.180292 1.354505
0.444102 -0.557122 1.046906
0.234637 -0.756169 0.869366
-0.374815 -0.636547 1.039408
-0.231619 -0.752273 0.741166
-0.374535 0.636757 1.039696
-0.232394 0.751611 0.738732
0.234839 0.756057 0.868979
0.444286 0.556900 1.046979
0.345837 -0.514012 0.204821
-0.315395 -0.545933 0.213440
-0.297154 0.561496 0.203335
0.345900 0.514602 0.206841
0.303407 0.550393 1.404031
-0.353866 0.506039 1.396845
-0.353633 -0.506242 1.396905
0.303621 -0.550440 1.403673
0.035234 -0.755473 0.488176
-0.038291 -0.779294 1.123733
-0.038215 0.779290 1.123796
0.038442 0.755160 0.488344
-0.102710 -0.684972 -0.295551
-0.073816 -0.668138 0.162254
-0.050400 0.679080 0.215523
0.050640 0.680229 1.385084
0.050882 -0.680278 1.384911
0.487976 -0.405753 1.231199
0.400009 -0.627026 0.822340
0.002037 -0.808563 0.806363
-0.466004 -0.396771 0.392245
-0.400128 -0.624786 0.786599
-0.582330 -0.000103 1.229362
-0.466689 0.396850 0.392331
-0.400403 0.624416 0.785396
0.001709 0.808361 0.804156
0.487948 0.405597 1.231526
0.400501 0.626428 0.822098
-0.355875 -0.003619 0.166946
-0.190684 0.618522 -0.094362
0.366052 -0.306877 0.037812
0.372109 0.329029 0.039659
0.234485 0.174848 1.743615
0.148103 0.476557 1.616600
-0.089950 0.291344 1.762335
-0.391326 0.300787 1.533237
-0.282925 -0.000160 1.734366
-0.391143 -0.301120 1.533264
-0.089696 -0.291545 1.762292
0.470968 -0.000030 1.508373
0.148458 -0.476621 1.616375
0.234605 -0.174915 1.743519
0.244631 -0.641285 0.355899
-0.255828 -0.664145 1.252217
-0.255807 0.664117 1.252366
0.245732 0.641838 0.359554
-0.523603 -0.369861 -0.552767
-0.532960 0.261448 -0.445459
0.285941 0.701405 -0.645809
0.442409 -0.077048 -0.337753
0.551299 0.385974 0.925240
0.227495 0.739970 0.654368
-0.230135 0.751246 0.955968
-0.545963 0.380382 0.683800
-0.626883 0.000136 0.927328
-0.545782 -0.380393 0.682257
-0.230407 -0.751134 0.955658
0.226879 -0.740511 0.655507
0.551091 -0.386481 0.925232
0.619405 -0.000316 0.683641
0.406448 -0.314449 1.505869
-0.162862 -0.539431 1.544852
-0.488215 -0.000227 1.479952
-0.163168 0.539223 1.544825
0.406281 0.314372 1.506181
0.393682 -0.004033 0.259219
0.181770 0.620039 -0.046683
-0.382157 0.345964 0.082255
-0.387001 -0.313816 0.142474
0.217775 -0.600463 -0.035120
0.156497 -0.219768 -1.770639
0.001737 -0.000067 1.842397
0.506665 -0.367406 0.492300
-0.252069 -0.684082 0.496074
-0.587111 0.000735 0.521653
-0.252175 0.683690 0.495861
0.508325 0.363973 0.492569
0.261129 -0.703186 1.117624
-0.524792 -0.384045 1.117131
-0.524729 0.384102 1.117329
0.261165 0.703118 1.117718
0.606882 -0.000096 1.100145

